# .PCD v0.7 - Point Cloud Data file format
VERSION 0.7
FIELDS x y z intensity
SIZE 4 4 4 4
TYPE F F F F
COUNT 1 1 1 1
WIDTH 1744
HEIGHT 1
VIEWPOINT 0 0 0 1 0 0 0
POINTS 1744
DATA ascii
33.9565 -18.0061 1.32905 32
30.411 -16.2533 1.46064 33
30.4508 -16.2446 1.52588 30
30.5447 -16.2718 1.5785 14
30.3751 -16.1449 1.64046 23
30.387 -16.1556 1.70039 35
30.3776 -16.1209 1.76009 13
30.4507 -16.3034 1.82163 0
30.6349 -16.2348 1.87865 33
30.5837 -16.3422 1.94133 32
30.4573 -16.1221 1.99929 37
30.4954 -16.2422 2.06118 1
30.4029 -16.1496 2.12028 40
30.4112 -16.1651 2.18058 13
nan nan nan nan
30.7055 -16.4295 2.30581 35
39.4305 -20.882 2.46543 38
39.3578 -21.0168 2.54611 35
39.4474 -20.8676 2.62083 39
39.4111 -20.9308 2.77786 38
39.418 -20.9111 2.93314 40
39.4404 -20.8829 3.08838 40
39.4333 -20.8558 3.24325 38
39.3952 -21.0368 3.79392 41
39.5715 -20.9968 4.58044 10
41.0689 -21.7646 5.93998 9
39.4767 -20.8745 6.96426 34
41.1289 -21.6306 9.17698 11
39.5334 -20.9771 10.928 39
41.2364 -21.5956 14.2765 14
3.22473 -1.76873 0.288615 5
4.90327 -2.65999 0.00862396 3
2.43569 -1.32391 1.2053 54
2.4951 -1.34215 1.3171 9
8.69016 -4.70673 -0.0809536 11
9.88509 -5.35725 -0.0840166 11
11.3036 -6.11134 -0.12965 13
12.6487 -6.82945 -0.155168 13
13.9611 -7.54833 -0.182663 4
15.6384 -8.40489 -0.28595 25
15.7182 -8.50124 -0.205157 41
15.6885 -8.45827 -0.0895905 43
15.7037 -8.46427 0.00610185 41
15.7011 -8.43085 0.0704422 42
15.6982 -8.41845 0.133938 43
15.6663 -8.4602 0.1985 40
15.6749 -8.44695 0.260739 40
15.6934 -8.42492 0.322261 41
15.7251 -8.43101 0.384995 37
15.657 -8.4534 0.449828 36
15.9499 -8.59334 0.484769 11
16.4998 -8.83378 0.499283 6
16.772 -8.99078 0.540904 33
18.1403 -9.76305 0.49286 3
18.1959 -9.79717 0.560551 3
18.1756 -9.72915 0.635287 3
18.1673 -9.733 0.707909 3
nan nan nan nan
21.5208 -11.5897 0.638741 8
21.5092 -11.6056 0.681983 39
21.5215 -11.5133 0.724788 40
21.5189 -11.5968 0.766964 23
21.717 -11.6331 0.799139 4
21.9393 -11.8042 0.829984 3
nan nan nan nan
21.9444 -11.7928 0.916829 1
nan nan nan nan
22.2389 -11.9917 0.994717 3
nan nan nan nan
22.428 -12.0793 1.07066 6
22.6557 -12.1336 1.1061 5
22.791 -12.2546 1.1459 4
33.5122 -18.0147 0.808731 17
33.4906 -17.9854 0.875833 37
33.5274 -18.0478 0.941159 37
33.5558 -18.0303 1.00663 38
33.6213 -18.0175 1.07105 36
33.6803 -18.0692 1.13621 38
33.8129 -18.0998 1.19948 39
33.6938 -18.1871 1.27011 40
33.8538 -18.1033 1.33234 37
33.8705 -18.2543 1.4003 28
30.3235 -16.3129 1.52923 31
30.2279 -16.2387 1.58436 30
30.3287 -16.2426 1.64243 32
30.3128 -16.2521 1.70281 30
30.4754 -16.3094 1.76111 0
30.5725 -16.4993 1.82274 36
30.6133 -16.3605 1.88078 35
30.5177 -16.4441 1.94361 36
30.4097 -16.2331 2.00153 33
30.3769 -16.3154 2.06331 1
30.3873 -16.2638 2.12244 37
30.3194 -16.2522 2.18262 38
30.4223 -16.2708 2.2427 37
30.6024 -16.5051 2.30749 31
30.7969 -16.4483 2.36698 11
39.3855 -21.2086 2.55044 30
31.2844 -16.6895 2.49603 17
31.3143 -16.7566 2.62158 25
39.4417 -21.1004 2.93836 41
39.4687 -21.0745 3.09409 36
39.4396 -21.0356 3.24867 39
39.4094 -21.2215 3.80086 34
39.5815 -21.1794 4.58883 11
40.7552 -21.7808 5.92018 10
39.4998 -21.0634 6.97934 40
40.8083 -21.644 9.13724 11
39.5676 -21.1724 10.9554 33
40.9164 -21.6102 14.2068 14
3.21862 -1.78005 0.288855 5
3.32996 -1.82089 0.650403 3
2.44793 -1.34168 1.19989 54
2.4819 -1.34624 1.31966 6
8.67461 -4.7356 -0.0803397 10
9.86644 -5.39181 -0.0832815 14
11.2737 -6.14612 -0.127169 12
12.6293 -6.876 -0.154972 11
13.987 -7.62556 -0.189825 4
15.6265 -8.46896 -0.287351 23
15.7191 -8.57277 -0.208286 43
15.691 -8.52692 -0.0925705 42
15.7091 -8.53809 0.00281227 39
15.7067 -8.50462 0.0672889 42
15.7038 -8.4922 0.130922 41
15.6761 -8.53631 0.195121 42
15.6804 -8.52068 0.258002 42
15.6946 -8.4963 0.320133 42
15.7263 -8.50249 0.382996 42
15.6668 -8.52948 0.447074 54
15.9112 -8.64426 0.486789 12
16.4558 -8.88427 0.501708 3
18.2446 -9.86275 0.410669 3
18.2772 -9.91911 0.479941 4
18.3239 -9.94873 0.549013 3
18.326 -9.89213 0.622725 3
nan nan nan nan
21.5504 -11.6925 0.550228 10
21.4802 -11.6648 0.640339 50
21.4774 -11.6854 0.683041 39
21.4769 -11.586 0.726643 39
21.4739 -11.6695 0.768814 23
21.6676 -11.7042 0.801236 4
21.8826 -11.8674 0.832471 3
21.7779 -11.8135 0.881344 3
21.8944 -11.8646 0.918892 1
nan nan nan nan
nan nan nan nan
22.3006 -12.0279 1.03172 3
22.3901 -12.1599 1.07215 5
22.6045 -12.2079 1.10813 6
22.7547 -12.3325 1.14734 5
33.3657 -18.0864 0.814194 23
33.4101 -18.0927 0.878908 30
33.4027 -18.1314 0.945595 26
33.4488 -18.1236 1.01042 36
33.4627 -18.0907 1.07623 37
33.5424 -18.1463 1.14063 39
33.6748 -18.1773 1.20376 41
33.5675 -18.2629 1.27391 36
30.5077 -16.4515 1.39979 25
nan nan nan nan
30.2971 -16.4353 1.53101 38
30.2502 -16.387 1.58551 36
30.2821 -16.3608 1.64463 25
30.2955 -16.3792 1.70467 13
nan nan nan nan
30.5659 -16.6268 1.82462 34
30.5737 -16.4767 1.88297 40
30.4557 -16.5481 1.94588 37
30.344 -16.3343 2.00379 41
30.3153 -16.4189 2.06555 1
30.3275 -16.3751 2.12481 35
30.2449 -16.3484 2.18476 25
30.405 -16.3982 2.24527 35
30.3323 -16.4895 2.30748 31
nan nan nan nan
30.8708 -16.7631 2.43503 10
31.0938 -16.7275 2.49624 14
31.0371 -16.7548 2.61972 28
39.469 -21.2925 2.94369 42
39.4961 -21.2666 3.09983 40
39.4627 -21.2251 3.25466 42
39.4185 -21.4041 3.80761 33
39.5775 -21.3552 4.59637 32
39.613 -21.3484 5.82041 29
39.5133 -21.248 6.99333 35
39.6385 -21.2011 8.94847 39
39.5706 -21.3519 10.976 33
39.6966 -21.1433 13.8678 38
3.20853 -1.78914 0.291225 5
3.33569 -1.83997 0.645588 3
2.42647 -1.34094 1.20566 52
2.49 -1.36193 1.31628 6
8.65896 -4.76442 -0.0797255 11
9.84767 -5.4263 -0.0825458 11
11.2609 -6.19027 -0.127969 14
12.6096 -6.92251 -0.154775 12
14.0038 -7.69828 -0.195611 6
15.6303 -8.5453 -0.29125 14
15.7153 -8.64203 -0.210797 43
15.6889 -8.59329 -0.0949621 41
15.6924 -8.60011 0.00231171 41
15.6886 -8.56935 0.0668969 42
15.7003 -8.56132 0.128957 40
15.6724 -8.6054 0.193261 42
15.6812 -8.59217 0.255759 42
15.6984 -8.57292 0.317599 37
15.7272 -8.57409 0.381003 39
15.6807 -8.60814 0.443891 38
15.9028 -8.71177 0.485885 20
16.712 -9.10194 0.476562 9
17.0285 -9.28199 0.515432 6
18.3606 -10.0475 0.471433 4
18.4291 -10.0893 0.539239 3
18.4387 -10.0404 0.612907 3
21.4379 -11.6793 0.471823 3
21.5095 -11.7677 0.551831 84
21.4438 -11.7421 0.641659 46
21.4409 -11.7627 0.68437 43
21.4344 -11.6647 0.728318 49
21.4419 -11.7493 0.769908 20
21.6442 -11.7893 0.801871 4
21.6547 -11.837 0.844115 3
21.7366 -11.8894 0.882964 3
21.8748 -11.953 0.919433 1
nan nan nan nan
nan nan nan nan
22.2301 -12.0953 1.03461 3
22.3563 -12.2429 1.07345 6
22.5135 -12.2605 1.11172 17
22.7313 -12.4175 1.14829 4
33.2893 -18.1956 0.817144 17
33.3336 -18.2021 0.881835 35
33.3086 -18.2311 0.949051 32
33.3327 -18.2115 1.01447 34
33.326 -18.175 1.08078 37
33.3823 -18.2106 1.1456 28
33.5454 -18.2589 1.20782 39
33.4016 -18.3164 1.27857 29
33.5685 -18.2532 1.34048 17
30.4979 -16.7126 1.46282 25
nan nan nan nan
30.3991 -16.6051 1.58492 37
30.3449 -16.5387 1.64555 25
nan nan nan nan
30.7429 -16.7297 1.76264 20
30.7606 -16.865 1.82533 29
30.8806 -16.7815 1.88384 29
30.3802 -16.6447 1.94818 36
30.2297 -16.4091 2.00603 36
30.2622 -16.527 2.06782 1
30.2321 -16.467 2.12703 37
30.2096 -16.4659 2.18714 33
30.1718 -16.4087 2.2461 33
30.0669 -16.4746 2.30749 40
30.1321 -16.3646 2.36493 39
nan nan nan nan
30.7671 -16.6905 2.49426 36
30.9227 -16.8397 2.62109 29
39.4603 -21.4659 2.9482 42
39.4874 -21.44 3.1046 41
39.4587 -21.4008 3.25983 42
nan nan nan nan
39.4894 -21.486 4.59845 41
29.9165 -16.2575 4.89283 37
39.5173 -21.4282 7.00622 36
39.5726 -21.3438 8.95293 40
39.6031 -21.5481 11.0034 33
39.7114 -21.3292 13.8975 40
3.2063 -1.80261 0.289337 5
3.30465 -1.83792 0.655988 3
2.44277 -1.36114 1.19885 40
nan nan nan nan
8.64239 -4.7947 -0.0790787 10
9.82878 -5.46072 -0.0818098 17
11.2393 -6.22962 -0.127128 12
12.5812 -6.96417 -0.153091 11
13.9597 -7.73759 -0.191835 8
15.6657 -8.63581 -0.299677 23
15.7111 -8.71136 -0.213303 41
15.698 -8.66967 -0.0990405 29
15.6971 -8.67414 -0.000967503 40
15.6979 -8.64572 0.0632151 43
15.7097 -8.63771 0.125431 43
15.6772 -8.67939 0.190398 41
15.686 -8.66617 0.253035 43
15.7078 -8.64934 0.314543 43
15.7322 -8.64819 0.378564 42
15.6899 -8.68458 0.44115 40
15.868 -8.76487 0.487489 20
16.7065 -9.17467 0.475406 12
17.0222 -9.35584 0.514405 9
17.5134 -9.66361 0.540717 31
nan nan nan nan
16.4663 -9.04088 0.760682 4
21.5196 -11.8215 0.464655 28
21.4684 -11.8428 0.553436 98
21.4334 -11.8338 0.641312 41
21.4042 -11.84 0.685702 41
21.3848 -11.7347 0.730435 49
21.4052 -11.8265 0.771256 20
21.603 -11.8648 0.803483 4
21.6396 -11.927 0.844322 3
21.695 -11.9653 0.884585 3
nan nan nan nan
nan nan nan nan
22.0905 -12.2119 1.00067 3
22.1615 -12.1584 1.03741 3
22.3092 -12.3184 1.0753 6
22.4838 -12.3462 1.11287 6
nan nan nan nan
33.2125 -18.3045 0.820094 25
33.2043 -18.2822 0.886529 31
33.2054 -18.3255 0.952782 28
33.234 -18.3084 1.018 31
33.2975 -18.3105 1.0823 37
33.2967 -18.315 1.14865 30
33.4114 -18.3374 1.21198 38
33.1855 -18.3565 1.28441 32
30.5325 -16.741 1.40156 25
30.4438 -16.8214 1.46502 31
30.4225 -16.7792 1.53178 24
30.3585 -16.7208 1.58695 29
30.4141 -16.7144 1.64632 23
30.8333 -16.9492 1.70282 14
30.7106 -16.8514 1.76473 34
30.611 -16.9293 1.82824 11
30.7342 -16.8411 1.88647 35
30.3701 -16.7772 1.95036 36
30.317 -16.5938 2.00831 36
30.2044 -16.6325 2.07007 1
30.0737 -16.517 2.12886 33
30.1168 -16.5519 2.18917 35
30.1012 -16.5066 2.24824 25
30.037 -16.6016 2.31016 34
30.0836 -16.4744 2.36728 31
30.0176 -16.5723 2.42917 39
30.0376 -16.4306 2.48575 33
29.7814 -16.3531 2.6016 29
39.4946 -21.6635 2.95378 42
39.5175 -21.6352 3.11049 36
29.7846 -16.2889 2.95539 13
28.8277 -15.9154 3.33166 39
29.353 -16.1036 3.93748 20
29.8769 -16.3713 4.89675 36
39.5466 -21.623 7.02245 40
39.619 -21.5475 8.97728 37
39.6132 -21.733 11.0259 40
39.7254 -21.5155 13.9273 41
3.18827 -1.80717 0.295962 5
3.28188 -1.84029 0.663002 3
6.10657 -3.43562 -0.0265853 12
7.37492 -4.10981 -0.0552318 6
8.62144 -4.82253 -0.0773976 10
9.81072 -5.49336 -0.0811102 11
11.2176 -6.2689 -0.126287 14
12.5569 -7.00813 -0.152149 10
13.9024 -7.76944 -0.186014 9
15.6572 -8.70258 -0.301702 25
15.7241 -8.79045 -0.218256 41
15.7068 -8.74623 -0.103112 31
15.7016 -8.7483 -0.00424051 41
15.7025 -8.71985 0.0600789 43
15.7187 -8.71428 0.121912 42
15.6832 -8.75078 0.187483 41
15.6906 -8.74031 0.250316 43
15.708 -8.7211 0.312432 42
15.7455 -8.72726 0.375228 43
15.6828 -8.74875 0.440094 38
15.8374 -8.82026 0.488675 20
16.5218 -9.14847 0.490646 29
16.5623 -9.17835 0.553145 6
16.4904 -9.17453 0.624838 72
16.4843 -9.17481 0.691358 11
16.4391 -9.10076 0.761582 13
21.4913 -11.9038 0.465323 226
21.4924 -11.9541 0.550614 177
21.4139 -11.9208 0.641527 40
21.3933 -11.9317 0.685421 48
21.3613 -11.819 0.73099 40
21.3769 -11.9085 0.772102 20
21.5702 -11.945 0.80461 4
22.0388 -12.2475 0.822289 3
21.7667 -12.1041 0.880346 3
22.1316 -12.2947 0.90579 3
nan nan nan nan
nan nan nan nan
22.1234 -12.2382 1.03887 3
22.2704 -12.3987 1.07678 8
22.4668 -12.4392 1.11351 6
nan nan nan nan
33.096 -18.3912 0.824444 25
33.1141 -18.3835 0.889892 32
33.1938 -18.4705 0.953607 25
33.1481 -18.4122 1.02113 31
33.1591 -18.3854 1.08684 36
33.1234 -18.3705 1.15394 37
33.1416 -18.3402 1.21934 39
33.0296 -18.4211 1.28888 41
33.1516 -18.3275 1.35116 37
30.3806 -16.9251 1.46737 13
30.4075 -16.9096 1.53338 29
30.3174 -16.8364 1.58898 25
30.3425 -16.8131 1.64874 23
30.446 -16.8749 1.70829 26
30.5117 -16.881 1.76809 11
30.5649 -17.0433 1.83046 14
30.719 -16.9724 1.8886 35
30.3288 -16.8928 1.95261 34
30.1932 -16.6632 2.01055 34
30.1505 -16.7402 2.07234 3
30.1208 -16.68 2.13155 36
30.0939 -16.6763 2.19164 33
30.0784 -16.631 2.25078 29
29.9919 -16.7136 2.31254 39
30.0259 -16.5793 2.36953 34
29.9596 -16.6769 2.43142 40
29.9056 -16.4943 2.48678 37
29.6891 -16.4375 2.60312 34
39.4931 -21.8423 2.95853 33
39.5205 -21.8165 3.11566 38
29.6181 -16.3324 2.9541 36
28.9989 -16.1422 3.34433 33
29.3009 -16.2083 3.93996 40
29.8107 -16.4705 4.89813 38
39.5359 -21.7967 7.03371 34
39.6342 -21.7353 8.9963 37
39.6267 -21.9205 11.0495 37
39.7513 -21.7091 13.9609 38
3.18203 -1.81836 0.296203 4
3.25093 -1.83788 0.673395 3
6.09047 -3.45462 -0.0247285 12
7.3564 -4.13323 -0.0534899 6
8.60892 -4.85508 -0.0777836 13
9.78828 -5.52353 -0.0794964 13
11.1915 -6.30568 -0.124625 12
12.5325 -7.052 -0.151207 12
13.871 -7.81558 -0.184289 9
15.6701 -8.78152 -0.306917 17
15.7496 -8.87705 -0.225041 40
15.7196 -8.82539 -0.107759 41
15.7144 -8.82747 -0.00861907 41
15.7111 -8.79654 0.05641 41
15.723 -8.78858 0.118921 40
15.6932 -8.82474 0.184069 41
15.6948 -8.81458 0.247604 43
15.7123 -8.79539 0.309858 36
15.7455 -8.79924 0.373252 40
15.6929 -8.82272 0.437306 39
15.8023 -8.87311 0.49028 17
16.4855 -9.20371 0.492282 31
16.5563 -9.25075 0.552094 30
16.5339 -9.27066 0.619816 30
16.4261 -9.2177 0.694676 13
16.4073 -9.15813 0.762812 12
21.4454 -11.9764 0.467245 191
21.4484 -12.0229 0.552439 158
21.3765 -11.9979 0.642855 41
21.3516 -12.0063 0.687026 37
21.3156 -11.8911 0.732849 41
21.3397 -11.9855 0.773454 17
21.5503 -12.0325 0.805011 4
21.8173 -12.2243 0.833528 3
21.8398 -12.2397 0.876043 3
22.1191 -12.389 0.905934 4
nan nan nan nan
nan nan nan nan
nan nan nan nan
22.2271 -12.4764 1.07845 8
22.4582 -12.537 1.11381 5
33.131 -18.5498 0.75708 5
33.0175 -18.4911 0.827422 25
33.0542 -18.5014 0.892226 23
33.0071 -18.5178 0.959955 30
33.0139 -18.4887 1.02568 30
33.025 -18.462 1.09125 32
33.0111 -18.4592 1.15765 35
33.0207 -18.4241 1.22316 32
32.9303 -18.5167 1.29211 38
33.0383 -18.4082 1.35454 39
30.3257 -17.0335 1.46958 28
30.3614 -17.023 1.53546 38
30.3152 -16.9739 1.59048 37
30.2793 -16.9165 1.65107 31
30.2953 -16.9299 1.71145 36
30.4045 -16.9606 1.77074 33
30.2917 -17.0299 1.83395 33
30.3742 -16.9137 1.89184 36
30.261 -16.9937 1.9549 29
30.0388 -16.715 2.01278 35
nan nan nan nan
29.9882 -16.7436 2.13348 34
30.0355 -16.7812 2.19389 32
29.994 -16.7212 2.25281 34
29.8549 -16.7741 2.31397 37
30.0319 -16.7128 2.37241 35
29.5873 -16.6052 2.42913 36
29.6425 -16.4844 2.48567 32
29.7276 -16.5947 2.60729 34
29.8163 -16.6255 2.72774 17
29.4013 -16.3586 2.83409 11
nan nan nan nan
28.8814 -16.209 3.34367 39
29.2135 -16.2934 3.94013 38
29.7616 -16.5792 4.90121 37
39.5679 -21.9947 7.05053 28
39.6481 -21.9141 9.01442 37
39.6608 -22.1204 11.078 35
39.7551 -21.8915 13.9881 41
3.17575 -1.82952 0.296443 4
3.22005 -1.83528 0.683785 3
6.07848 -3.47595 -0.0242691 12
7.35049 -4.16375 -0.0553131 8
8.59119 -4.88669 -0.0771031 11
9.77566 -5.56602 -0.080512 11
11.1695 -6.34479 -0.123783 13
12.5122 -7.09823 -0.151006 12
13.8782 -7.8836 -0.188697 10
15.687 -8.86309 -0.312764 30
15.7488 -8.94922 -0.228141 40
15.7262 -8.90504 -0.111758 34
15.7225 -8.90438 -0.012435 41
15.7193 -8.87339 0.0527476 42
15.7313 -8.86546 0.115415 39
15.6967 -8.90984 0.180899 41
15.703 -8.89144 0.244411 43
15.7206 -8.87227 0.306821 37
15.7451 -8.87132 0.371282 41
15.7051 -8.91275 0.433894 41
15.767 -8.92581 0.491884 17
16.3622 -9.2099 0.501901 31
16.4676 -9.27672 0.558298 30
16.5113 -9.3415 0.62009 28
16.3766 -9.2652 0.697297 25
16.3796 -9.21784 0.763714 14
21.4035 -12.0512 0.468854 53
21.3978 -12.1027 0.554506 38
21.3389 -12.075 0.644185 33
21.3183 -12.0857 0.688096 32
21.2741 -11.9654 0.734448 38
21.3238 -12.0747 0.773554 20
21.5213 -12.115 0.805902 4
21.6246 -12.2207 0.843188 3
21.9883 -12.4341 0.867735 3
21.8496 -12.3384 0.918832 3
nan nan nan nan
nan nan nan nan
nan nan nan nan
22.1922 -12.5588 1.07976 9
22.471 -12.6472 1.11325 5
33.0934 -18.6883 0.758547 10
32.9898 -18.6424 0.8286 28
33.2898 -18.7862 0.884612 23
32.864 -18.5887 0.964911 28
32.9101 -18.5818 1.02932 34
32.9212 -18.5551 1.09481 30
32.9291 -18.5645 1.16058 33
32.9083 -18.5123 1.22677 36
32.8536 -18.6324 1.2949 33
32.8748 -18.4753 1.35903 38
32.8546 -18.6049 1.42641 31
30.3149 -17.1363 1.53754 35
nan nan nan nan
nan nan nan nan
30.1097 -16.9643 1.71494 23
30.2057 -16.9881 1.77408 33
33.0096 -18.7246 1.82112 23
30.4123 -17.0812 1.89387 35
30.4365 -17.2322 1.95682 32
33.194 -18.6227 2.01635 13
33.1942 -18.7345 2.08468 1
30.2999 -17.0566 2.13738 12
33.3397 -18.7806 2.21788 32
30.0052 -16.865 2.25565 31
29.9556 -16.9823 2.31819 37
29.9879 -16.8325 2.37499 37
29.6423 -16.7723 2.433 35
29.515 -16.5486 2.48674 37
29.6651 -16.6958 2.60943 30
29.8147 -16.7613 2.73136 34
29.3367 -16.4637 2.83628 36
28.7098 -16.0938 2.93279 38
nan nan nan nan
29.1303 -16.3805 3.94058 38
nan nan nan nan
28.78 -16.1285 5.68244 28
39.675 -22.1191 9.03667 38
39.6641 -22.304 11.0996 40
39.7624 -22.0766 14.0167 39
3.16943 -1.84067 0.296684 4
nan nan nan nan
6.06642 -3.49722 -0.0238097 12
7.3318 -4.18706 -0.0535712 11
8.57843 -4.91916 -0.0774875 11
9.75531 -5.6019 -0.0797369 14
11.1474 -6.38382 -0.12294 11
12.4918 -7.1444 -0.150804 13
13.9453 -7.98624 -0.202638 10
15.6776 -8.93015 -0.314773 31
15.7607 -9.0289 -0.233073 40
15.7296 -8.97965 -0.115227 43
15.7475 -8.99131 -0.0184639 40
15.7402 -8.95779 0.0474787 43
15.7349 -8.94005 0.112435 42
15.7029 -8.98962 0.177617 41
15.7065 -8.966 0.241711 42
15.7243 -8.94685 0.304258 37
15.7444 -8.94351 0.369316 42
15.7157 -8.99505 0.430805 40
15.7358 -8.98085 0.493072 23
16.3257 -9.26455 0.503531 28
16.4395 -9.33666 0.559156 29
16.4727 -9.39953 0.62176 34
16.3355 -9.31741 0.699224 31
16.3518 -9.27746 0.764617 25
21.3788 -12.1358 0.469218 41
16.623 -9.48337 0.877092 11
nan nan nan nan
21.2934 -12.17 0.688632 35
21.2626 -12.0569 0.734232 42
21.3163 -12.1689 0.773157 17
21.4919 -12.1975 0.806795 4
21.5949 -12.3035 0.844117 1
nan nan nan nan
21.7978 -12.4097 0.920909 1
nan nan nan nan
nan nan nan nan
nan nan nan nan
nan nan nan nan
22.4919 -12.7626 1.11236 5
32.8109 -18.6801 0.769211 35
32.9257 -18.7657 0.831055 25
33.2458 -18.9147 0.886389 25
32.8077 -18.7083 0.967113 20
32.8407 -18.6941 1.03193 30
32.8215 -18.6502 1.09825 33
32.8164 -18.6522 1.16428 31
32.8349 -18.6221 1.22945 36
32.7667 -18.7345 1.29784 35
32.8417 -18.6154 1.36094 35
32.8156 -18.7344 1.42843 33
32.8612 -18.7272 1.49991 36
32.8814 -18.7134 1.55875 33
32.9733 -18.725 1.62321 23
32.9108 -18.6944 1.69 34
30.1376 -17.0885 1.77642 20
32.931 -18.8323 1.82368 39
32.9991 -18.6932 1.88697 14
30.463 -17.3879 1.95899 29
30.6395 -17.3304 2.01763 25
30.1605 -17.1613 2.0796 1
30.2271 -17.1549 2.1396 29
30.3697 -17.2473 2.20137 11
29.994 -16.9967 2.25831 20
29.8267 -17.047 2.31971 41
29.9042 -16.9299 2.37709 25
29.7703 -16.9822 2.43797 32
29.9009 -16.9024 2.4963 33
nan nan nan nan
29.4124 -16.6705 2.72516 30
29.2762 -16.5711 2.83859 33
28.6317 -16.1816 2.93424 17
nan nan nan nan
29.0598 -16.4746 3.9419 37
nan nan nan nan
28.7536 -16.2458 5.68849 23
39.6709 -22.3076 9.05359 39
39.6709 -22.4902 11.1222 36
39.7899 -22.2737 14.0516 39
3.15527 -1.84722 0.301179 4
nan nan nan nan
6.0555 -3.51634 -0.0233958 12
7.31725 -4.21271 -0.0530171 11
8.56046 -4.95066 -0.0768056 10
9.73253 -5.63183 -0.0781226 11
11.1337 -6.42771 -0.123733 14
12.4155 -7.15841 -0.140962 25
13.999 -8.08202 -0.214521 10
15.6938 -9.01208 -0.320606 37
15.7624 -9.09581 -0.236282 41
15.7355 -9.05962 -0.119213 43
15.7334 -9.05621 -0.0194921 42
15.7305 -9.02513 0.0459801 42
15.7426 -9.01724 0.108942 41
15.7135 -9.06133 0.174164 40
15.7097 -9.04069 0.239016 43
15.7319 -9.02404 0.301234 38
15.7478 -9.01828 0.366906 42
15.7263 -9.06681 0.427978 41
15.7347 -9.05317 0.491352 28
16.289 -9.31906 0.505161 32
16.3896 -9.38412 0.561921 36
16.4458 -9.45663 0.62258 25
16.2986 -9.37194 0.700805 30
16.2717 -9.30727 0.769468 25
16.4426 -9.40872 0.822711 17
16.7214 -9.61309 0.869471 17
21.2932 -12.2462 0.644915 29
21.2596 -12.2493 0.689707 35
21.2465 -12.146 0.73428 33
21.2607 -12.2259 0.775608 20
21.4623 -12.2799 0.807691 4
17.0586 -9.80288 1.08727 9
nan nan nan nan
nan nan nan nan
nan nan nan nan
nan nan nan nan
22.1675 -12.6699 1.03603 6
32.5789 -18.7246 0.646743 8
22.5427 -12.8957 1.11027 4
32.5906 -18.7132 0.77752 33
32.677 -18.7678 0.840055 30
32.6941 -18.7521 0.905214 35
32.7509 -18.8277 0.969319 28
32.7017 -18.7663 1.03659 28
32.739 -18.7547 1.1012 33
32.7283 -18.746 1.1673 32
32.748 -18.7242 1.23243 34
32.6935 -18.852 1.30054 33
32.7895 -18.7374 1.36316 36
32.75 -18.8488 1.43091 36
32.7783 -18.8318 1.50266 37
32.8029 -18.8206 1.56141 28
32.8514 -18.8077 1.62635 35
32.8487 -18.8035 1.69236 25
32.9077 -18.8118 1.7576 27
32.8531 -18.9478 1.82635 22
32.9814 -18.8355 1.88929 30
32.9461 -18.9578 1.95782 14
33.0676 -18.8564 2.02135 13
30.2652 -17.361 2.08231 1
30.1193 -17.2329 2.14166 23
30.2733 -17.3255 2.20328 29
29.9692 -17.1211 2.26088 39
28.7936 -16.597 2.31165 29
nan nan nan nan
28.8006 -16.5626 2.4268 31
29.1381 -16.6056 2.48685 34
29.0097 -16.5946 2.60276 37
30.7211 -17.5543 2.76117 14
nan nan nan nan
30.5161 -17.3874 2.99989 17
27.9216 -16.0571 3.31315 32
29.0064 -16.5783 3.94438 34
28.2015 -16.0991 4.77182 38
28.6145 -16.2992 5.6801 37
39.6827 -22.4967 9.07267 39
39.6938 -22.6865 11.1487 33
39.7997 -22.4618 14.0814 39
3.11382 -1.83758 0.320558 4
nan nan nan nan
6.04268 -3.53859 -0.0229125 13
7.30681 -4.24075 -0.0536497 12
8.54324 -4.98059 -0.0761559 14
9.71816 -5.66663 -0.0783331 14
11.1071 -6.46414 -0.122071 12
12.3649 -7.18687 -0.135573 23
14.0949 -8.20318 -0.233198 10
15.7096 -9.09423 -0.326431 35
15.7548 -9.16859 -0.238695 41
15.7339 -9.13201 -0.122088 43
15.7319 -9.12861 -0.0221801 41
15.7291 -9.09748 0.0434114 42
15.7412 -9.08962 0.106494 41
15.7135 -9.13094 0.17178 41
15.7126 -9.11552 0.236328 40
15.7263 -9.09392 0.299619 39
15.7422 -9.0882 0.365401 38
15.722 -9.13398 0.426515 40
15.7074 -9.11059 0.492129 35
16.4119 -9.46557 0.49206 33
16.3957 -9.46377 0.559734 34
16.3281 -9.46117 0.631026 26
16.3004 -9.44883 0.699273 25
16.2608 -9.37652 0.769056 20
16.427 -9.47608 0.82271 17
nan nan nan nan
21.2548 -12.3229 0.646252 23
21.2297 -12.331 0.690516 33
21.2084 -12.2226 0.735628 39
21.2591 -12.3288 0.774801 13
21.4367 -12.3648 0.808349 6
17.1583 -9.93998 1.08135 4
21.6908 -12.5624 0.881353 9
32.7498 -18.9478 0.375057 20
21.8623 -12.6726 0.960669 10
32.507 -18.8701 0.524695 31
22.0799 -12.7223 1.0396 6
32.5058 -18.8415 0.649514 31
32.6262 -18.8174 0.710427 34
32.5684 -18.8519 0.77836 34
32.5801 -18.856 0.843638 34
32.5939 -18.8462 0.908852 34
32.5942 -18.8893 0.974666 31
32.6101 -18.8654 1.03983 35
32.6387 -18.8489 1.10464 34
32.6671 -18.8626 1.16966 34
32.6955 -18.846 1.2346 36
32.6362 -18.971 1.30283 36
32.7316 -18.8485 1.36543 35
32.6884 -18.9655 1.43332 36
32.7081 -18.9436 1.50521 36
32.7414 -18.9375 1.56383 38
32.7466 -18.8997 1.62928 40
32.8305 -18.9455 1.6944 33
32.9372 -18.9814 1.75939 12
32.8593 -19.0968 1.82834 37
32.9794 -18.9797 1.89145 14
32.9143 -19.0927 1.96027 35
29.7982 -17.1302 2.02179 20
30.1525 -17.4365 2.08446 1
30.0633 -17.3404 2.14396 28
30.178 -17.411 2.20534 11
29.9092 -17.2256 2.26314 28
28.7903 -16.7225 2.31429 31
28.7177 -16.5174 2.36786 32
28.7513 -16.668 2.42911 33
28.9369 -16.625 2.48665 34
28.9646 -16.7032 2.60522 25
29.1654 -16.8004 2.72637 25
nan nan nan nan
30.7412 -17.658 3.0116 20
28.2025 -16.3498 3.33116 37
nan nan nan nan
28.1838 -16.2197 4.77778 30
28.5443 -16.3914 5.68059 37
39.7191 -22.6916 9.09544 38
39.6904 -22.8686 11.1694 34
39.8129 -22.6527 14.1126 35
3.11914 -1.85545 0.314417 4
3.14168 -1.84922 0.706723 3
6.02565 -3.55836 -0.0210335 11
7.29207 -4.26631 -0.0530946 11
8.52169 -5.00799 -0.0744741 11
9.69942 -5.6989 -0.0776308 11
11.0888 -6.50545 -0.122044 13
12.3014 -7.20758 -0.127966 12
14.1945 -8.32762 -0.252535 10
15.7164 -9.1716 -0.330974 36
15.7512 -9.24395 -0.241714 40
15.7364 -9.20702 -0.12554 41
15.7344 -9.20362 -0.0254169 40
15.736 -9.17494 0.0397744 42
15.7439 -9.1646 0.103533 43
15.7176 -9.20317 0.1689 42
15.7151 -9.19047 0.233645 43
15.7332 -9.17138 0.296607 43
15.7406 -9.16069 0.363451 35
15.7261 -9.20624 0.424191 41
15.71 -9.18554 0.490002 29
16.4176 -9.54541 0.489724 25
nan nan nan nan
16.2838 -9.50777 0.633293 30
16.2588 -9.50068 0.701202 23
16.2453 -9.44329 0.768976 17
17.1487 -9.97257 0.769576 30
17.2049 -10.0434 0.834643 28
17.2635 -10.0897 0.900413 6
nan nan nan nan
21.2477 -12.3442 0.732324 28
16.981 -9.93056 1.02152 4
21.4064 -12.4471 0.809251 10
17.2141 -10.0527 1.07778 6
nan nan nan nan
32.6706 -19.0545 0.378188 23
32.4851 -18.9816 0.452965 28
32.4971 -19.0163 0.524612 30
32.5337 -18.8982 0.582576 30
32.4841 -18.9883 0.650129 30
32.5258 -18.9111 0.714271 31
32.4938 -18.9605 0.781157 31
32.5001 -18.9539 0.846602 31
32.515 -18.9523 0.91176 34
32.5066 -18.9903 0.977822 34
32.5354 -18.9741 1.04256 35
32.5641 -18.9577 1.10735 36
32.5805 -18.9722 1.1727 37
32.6209 -18.955 1.23729 37
32.5698 -19.0849 1.30531 37
32.6646 -18.9544 1.36787 38
32.6134 -19.0745 1.43595 37
32.6331 -19.0526 1.50782 39
32.6578 -19.0416 1.56655 38
32.6632 -19.0039 1.63196 41
32.7133 -19.038 1.69746 37
32.8751 -19.0988 1.76185 31
32.7795 -19.2038 1.83091 36
32.9207 -19.0914 1.89381 36
32.9122 -19.2453 1.96269 9
32.9525 -19.0968 2.02636 34
30.0439 -17.5139 2.08661 1
30.0069 -17.4477 2.14626 11
30.0016 -17.4561 2.20698 20
29.8532 -17.3324 2.26545 28
28.6239 -16.7597 2.3153 28
28.6887 -16.6276 2.37026 32
28.6195 -16.7253 2.4302 33
28.5758 -16.5505 2.48374 31
28.7764 -16.7288 2.6047 25
28.9379 -16.8042 2.72437 37
29.2106 -16.9265 2.848 29
29.5505 -17.1115 2.97668 8
28.1624 -16.4582 3.33412 36
28.3243 -16.4517 3.91064 36
28.1614 -16.3379 4.78332 28
28.5126 -16.5057 5.68609 34
39.7203 -22.8673 9.1121 40
39.7201 -23.0706 11.1979 35
39.8294 -22.8463 14.145 39
3.10885 -1.86407 0.316782 4
3.10695 -1.8434 0.718788 3
6.01742 -3.58191 -0.0219684 12
7.27724 -4.29182 -0.0525391 12
8.50514 -5.0363 -0.0738566 11
9.6848 -5.73362 -0.0778399 14
11.0704 -6.54671 -0.122015 12
12.2252 -7.22038 -0.118142 5
14.3275 -8.47303 -0.277292 10
15.7271 -9.25164 -0.336147 38
15.7617 -9.32423 -0.24662 39
15.7487 -9.28444 -0.130207 41
15.7365 -9.27875 -0.0286474 41
15.7383 -9.25004 0.0366806 41
15.7505 -9.24223 0.100058 41
15.7214 -9.27552 0.166025 41
15.7131 -9.26302 0.231452 40
15.7355 -9.24649 0.294069 40
15.7429 -9.23581 0.361059 38
15.7299 -9.27864 0.421873 39
15.695 -9.2505 0.48954 36
16.3842 -9.60271 0.490972 31
16.3853 -9.6109 0.557281 43
16.4113 -9.6553 0.621056 30
16.3503 -9.63083 0.692433 31
nan nan nan nan
17.1139 -10.0324 0.770879 25
17.1543 -10.0903 0.837058 30
17.2024 -10.1347 0.90338 12
17.4154 -10.2786 0.924871 14
21.1615 -12.3931 0.736521 10
16.9248 -9.97712 1.02406 5
nan nan nan nan
33.1269 -19.4891 0.220227 13
32.6089 -19.174 0.314314 14
32.6169 -19.1761 0.38003 20
32.5435 -19.1685 0.449475 25
32.4995 -19.1703 0.523952 23
32.528 -19.0471 0.582411 28
32.4651 -19.1295 0.650628 31
32.5071 -19.0523 0.714863 31
32.4739 -19.0935 0.781886 33
32.4803 -19.0869 0.847417 35
32.4918 -19.091 0.912787 33
32.4789 -19.1265 0.979075 35
32.5078 -19.1103 1.04389 34
32.5323 -19.0915 1.10888 35
32.5573 -19.1111 1.17408 36
32.5934 -19.0915 1.23885 36
32.5322 -19.208 1.30712 36
32.6362 -19.0828 1.36956 38
32.5897 -19.2136 1.43769 36
32.601 -19.1867 1.50978 38
32.6386 -19.1833 1.5684 37
32.7002 -19.1785 1.63327 40
32.72 -19.1951 1.69927 39
32.8039 -19.2109 1.76438 37
32.7544 -19.3353 1.83308 40
32.8744 -19.2105 1.89613 37
32.8276 -19.3499 1.96522 34
30.101 -17.585 2.02664 20
30.7499 -18.0696 2.09111 3
30.2047 -17.7041 2.1498 28
30.1691 -17.6948 2.21084 29
29.9047 -17.5021 2.26871 20
33.1287 -19.5444 2.36764 14
33.223 -19.4025 2.43163 28
28.5437 -16.815 2.43212 17
28.5437 -16.6652 2.48635 36
28.5928 -16.7558 2.60425 38
28.823 -16.8722 2.72516 32
29.1327 -17.0107 2.84948 35
29.361 -17.1389 2.97463 32
28.066 -16.5335 3.33443 17
28.3054 -16.5731 3.91541 32
28.1428 -16.4586 4.7893 37
28.3988 -16.5724 5.68102 38
39.7508 -23.0605 9.13414 40
39.732 -23.2632 11.2226 35
39.8409 -23.0379 14.1762 35
3.10629 -1.87732 0.314895 4
3.10864 -1.85912 0.715648 3
6.00087 -3.6005 -0.0201125 9
7.26232 -4.31728 -0.0519834 12
8.48342 -5.06353 -0.0721748 10
9.65539 -5.76412 -0.0752392 11
11.0476 -6.58539 -0.121169 11
12.1788 -7.25045 -0.113507 5
14.4894 -8.63722 -0.306781 10
15.7247 -9.32428 -0.339403 38
15.7803 -9.40979 -0.25274 42
15.759 -9.36479 -0.134807 42
15.7682 -9.37178 -0.0357456 42
15.7616 -9.33794 0.0309119 42
15.7611 -9.32255 0.0960711 42
15.7259 -9.35604 0.162775 40
15.7192 -9.34076 0.228297 42
15.7418 -9.32426 0.291069 39
15.7493 -9.31358 0.358223 40
15.7216 -9.35156 0.420544 41
15.7099 -9.33327 0.48618 34
16.3507 -9.6599 0.492221 32
16.3817 -9.68586 0.555872 25
16.4076 -9.73038 0.619773 32
16.3295 -9.69553 0.692647 34
16.6516 -9.83572 0.735418 28
17.0058 -10.049 0.777455 30
17.1363 -10.1603 0.837197 20
17.1412 -10.1795 0.906343 12
17.3022 -10.2935 0.930995 5
17.0548 -10.0679 0.981805 12
nan nan nan nan
17.239 -10.1848 1.04062 5
17.2829 -10.2512 1.07293 11
32.6235 -19.3362 0.312569 17
nan nan nan nan
16.7326 -9.93482 1.20443 9
32.5527 -19.3551 0.520956 28
32.427 -19.1402 0.586394 17
32.497 -19.3014 0.648987 28
32.5007 -19.2013 0.714952 30
32.4802 -19.2501 0.781613 28
32.4866 -19.2435 0.847293 33
32.511 -19.2553 0.912378 29
32.4894 -19.2857 0.979114 34
32.5184 -19.2696 1.04409 32
32.5473 -19.2533 1.10911 33
32.5549 -19.2628 1.17492 33
32.5826 -19.2382 1.24003 33
32.5252 -19.3573 1.30832 34
32.6254 -19.2296 1.37096 33
32.5698 -19.3553 1.43936 36
32.5983 -19.3387 1.5113 36
32.6188 -19.3252 1.57026 38
32.6589 -19.3078 1.63547 38
32.6356 -19.299 1.70192 39
32.7324 -19.3227 1.76691 40
32.8157 -19.5262 1.83492 38
32.9451 -19.4064 1.8982 33
32.8588 -19.5231 1.96762 13
29.9963 -17.6645 2.0289 20
30.4845 -18.057 2.09286 1
30.1384 -17.8068 2.15209 34
30.0082 -17.7414 2.21244 31
30.2611 -17.8528 2.27475 23
30.1766 -17.9455 2.3381 28
30.0183 -17.672 2.39331 31
29.9766 -17.8001 2.45692 11
28.4595 -16.7495 2.48808 30
28.4953 -16.8326 2.60561 11
28.5788 -16.8634 2.72269 17
29.0559 -17.1021 2.8512 25
28.9435 -17.0308 2.96497 35
27.8176 -16.5117 3.32725 37
nan nan nan nan
28.3039 -16.6856 4.8132 37
28.3235 -16.6611 5.68095 36
39.7678 -23.2562 9.15482 41
39.7428 -23.4467 11.2461 35
39.8681 -23.2395 14.2125 35
3.09207 -1.88351 0.319385 4
nan nan nan nan
nan nan nan nan
7.24732 -4.34268 -0.0514271 13
8.47419 -5.09823 -0.0735862 14
9.63954 -5.80041 -0.0754099 14
11.0258 -6.62207 -0.120365 12
12.1026 -7.26246 -0.103696 5
14.6716 -8.8154 -0.339637 9
15.7305 -9.40211 -0.343927 41
15.79 -9.49047 -0.257631 42
15.7646 -9.44279 -0.138819 43
15.7568 -9.43961 -0.0373032 41
15.7547 -9.40827 0.0289029 43
15.7712 -9.40306 0.0920916 41
15.7359 -9.43652 0.158971 41
15.7293 -9.42121 0.224665 42
15.7477 -9.40219 0.288077 39
15.7552 -9.39152 0.355394 38
15.7317 -9.43205 0.417434 41
15.7115 -9.40859 0.484071 34
16.3213 -9.71952 0.493073 34
16.4592 -9.80941 0.54726 33
16.3779 -9.7902 0.620666 33
16.3085 -9.7602 0.692863 30
16.5916 -9.87851 0.738653 23
16.8078 -10.0112 0.790526 29
nan nan nan nan
16.3346 -9.77773 0.957105 10
17.1977 -10.3127 0.936574 12
nan nan nan nan
nan nan nan nan
17.182 -10.2321 1.04314 5
16.5353 -9.88619 1.11263 10
nan nan nan nan
16.5132 -9.86118 1.18108 10
32.5463 -19.4774 0.447886 13
16.4531 -9.86026 1.25417 5
32.4674 -19.3172 0.584177 23
16.7218 -10.0094 1.30658 6
32.4593 -19.33 0.716414 23
16.6757 -9.96412 1.37631 6
32.4065 -19.3491 0.850235 32
32.5029 -19.3963 0.912868 31
32.4605 -19.4222 0.980384 37
32.5025 -19.4138 1.04505 30
32.5229 -19.3924 1.11042 38
32.5477 -19.4122 1.17588 37
32.5926 -19.3978 1.24071 37
32.5346 -19.517 1.30916 37
32.6398 -19.3919 1.37187 37
32.5955 -19.5172 1.44017 36
32.6251 -19.5088 1.51237 36
32.6499 -19.4979 1.57145 36
32.6944 -19.4831 1.63682 36
32.684 -19.4819 1.70335 39
32.7851 -19.5085 1.76855 37
32.8374 -19.6946 1.83698 34
32.8814 -19.5238 1.9007 23
30.593 -18.3146 1.97221 29
30.416 -18.055 2.03165 29
30.0649 -17.9505 2.0941 3
30.076 -17.9119 2.15439 30
30.4013 -18.1174 2.21797 28
30.4049 -18.081 2.27894 31
21.0433 -12.615 2.23861 8
28.5332 -16.9322 2.37692 13
28.4543 -17.0242 2.43676 32
nan nan nan nan
28.5008 -16.9703 2.60916 17
38.1729 -22.706 2.96961 23
28.7252 -17.0427 2.84546 28
38.1647 -22.6363 3.27741 31
27.767 -16.6063 3.32947 37
28.0902 -16.7114 3.91301 35
28.468 -16.9165 4.83756 33
28.1197 -16.6735 5.66417 36
39.7754 -23.4472 9.17397 37
39.7656 -23.6381 11.2726 36
39.8778 -23.4319 14.2436 38
3.07786 -1.88962 0.323874 4
2.60517 -1.5825 0.922104 5
nan nan nan nan
7.23222 -4.36804 -0.0508709 13
8.4439 -5.12026 -0.0698428 9
9.61934 -5.8341 -0.0746689 11
11.0016 -6.66252 -0.119476 14
12.0308 -7.2766 -0.0946317 6
14.8019 -8.96417 -0.364311 11
15.736 -9.48008 -0.348443 41
15.7909 -9.56619 -0.261296 43
15.77 -9.52093 -0.142825 43
15.7707 -9.52289 -0.0421731 38
15.7644 -9.48892 0.0247568 43
15.7768 -9.48119 0.0886371 43
15.7455 -9.51719 0.155173 41
15.7391 -9.50184 0.22104 41
15.7576 -9.48283 0.284624 41
15.7651 -9.47217 0.352123 38
15.7456 -9.5153 0.413901 41
15.7298 -9.49433 0.480312 38
nan nan nan nan
16.5232 -9.92593 0.539803 31
nan nan nan nan
16.2487 -9.80166 0.69618 29
16.5699 -9.94411 0.738944 33
16.8113 -10.093 0.789029 29
16.941 -10.2051 0.848285 28
nan nan nan nan
16.431 -9.93108 0.983312 34
nan nan nan nan
nan nan nan nan
17.1676 -10.3049 1.04326 12
16.4537 -9.91553 1.11644 13
16.4534 -9.90945 1.15004 5
16.4257 -9.89074 1.18497 14
16.3806 -9.88113 1.2205 8
16.393 -9.90215 1.25661 9
32.4427 -19.4562 0.584789 13
32.4087 -19.5563 0.652 28
32.5159 -19.5178 0.713972 29
16.6452 -10.0249 1.37743 5
32.403 -19.5008 0.850434 28
32.4659 -19.5359 0.914335 34
32.4568 -19.5741 0.980851 23
32.4988 -19.5658 1.04565 30
32.5279 -19.5496 1.11091 31
32.5397 -19.5618 1.17686 31
32.5762 -19.5424 1.242 32
32.5134 -19.6589 1.31066 36
32.6105 -19.5289 1.37363 33
32.5504 -19.6603 1.44241 35
32.5825 -19.638 1.51449 38
32.6074 -19.6272 1.57362 38
32.6477 -19.61 1.63908 39
32.6544 -19.6191 1.70551 40
32.8111 -19.6794 1.7704 37
32.7898 -19.822 1.8394 35
32.8861 -19.6821 1.903 12
30.6167 -18.4887 1.9747 35
30.6489 -18.3381 2.03428 35
30.1692 -18.1559 2.09693 3
30.1462 -18.0965 2.15738 32
30.5522 -18.3521 2.22184 8
33.1589 -19.8762 2.30717 10
20.9863 -12.6806 2.24008 11
28.4009 -16.988 2.37813 25
28.2988 -17.079 2.43778 33
21.0002 -12.5577 2.36543 11
28.42 -17.0567 2.61089 32
38.2091 -22.9084 2.97549 28
28.5797 -17.0915 2.84513 28
28.5407 -17.0631 2.95988 25
nan nan nan nan
28.053 -16.8221 3.91663 14
28.4429 -17.0361 4.84316 31
27.9161 -16.6847 5.64737 8
29.2568 -17.3853 7.28933 29
39.7665 -23.8551 11.2987 36
39.8992 -23.632 14.2787 36
3.07133 -1.90042 0.324112 4
2.61172 -1.599 0.917241 33
2.4414 -1.49785 1.18154 55
7.21704 -4.39334 -0.0503142 11
8.43354 -5.15636 -0.0712204 4
9.59381 -5.86684 -0.0729799 14
10.9688 -6.69775 -0.116954 10
11.9928 -7.31091 -0.0914876 11
14.9228 -9.10879 -0.387603 11
15.7284 -9.55049 -0.351047 40
15.7914 -9.64203 -0.264954 43
15.7648 -9.59682 -0.145606 39
15.7841 -9.60637 -0.047035 39
15.7781 -9.57233 0.0200825 41
15.7777 -9.55689 0.0857068 40
15.7472 -9.60096 0.152005 41
15.7441 -9.58007 0.217906 40
15.7585 -9.5585 0.28211 40
15.7704 -9.55043 0.349308 37
15.7474 -9.59908 0.411358 40
15.7307 -9.56995 0.478216 37
16.5389 -10.0062 0.46903 29
16.6933 -10.1076 0.522893 23
16.6937 -10.1457 0.590436 25
16.5256 -10.0475 0.672335 28
16.5351 -10.0019 0.740216 29
16.8273 -10.1827 0.786611 29
16.9317 -10.2882 0.847677 30
16.3386 -9.93569 0.954954 31
16.4347 -10.0118 0.98219 14
16.4273 -9.93079 1.01705 23
16.3617 -9.95554 1.05377 7
16.4864 -9.97433 1.08073 23
16.571 -10.0691 1.10947 8
16.4025 -9.9648 1.1521 10
32.612 -19.7988 0.376691 30
16.4101 -9.9772 1.2187 8
16.3371 -9.94634 1.25884 6
32.3704 -19.5668 0.587467 14
32.494 -19.7628 0.648081 30
16.6421 -10.0665 1.3436 8
32.6282 -19.8101 0.77585 29
16.5974 -10.0772 1.41305 12
32.4711 -19.7015 0.914375 38
32.367 -19.6743 0.984021 41
32.4475 -19.6895 1.04765 38
32.4595 -19.6631 1.11341 37
32.4841 -19.6831 1.17903 31
32.5207 -19.6637 1.2442 36
32.4625 -19.7909 1.31283 33
32.5688 -19.6663 1.37568 36
32.5251 -19.808 1.44423 39
32.5736 -19.788 1.5161 39
32.6242 -19.7928 1.575 39
32.686 -19.7885 1.6404 40
32.7184 -19.8132 1.70681 38
32.815 -19.8377 1.7724 36
32.892 -20.0487 1.84119 40
33.0021 -19.9161 1.90509 38
30.5402 -18.5956 1.97718 25
33.1494 -19.9917 2.03948 29
33.1751 -20.123 2.10911 1
29.7877 -18.023 2.15815 23
39.5421 -23.9413 2.29005 14
39.6065 -23.9301 2.37026 30
20.9439 -12.76 2.24182 14
20.9915 -12.6616 2.2824 10
20.9283 -12.7361 2.32675 29
20.9562 -12.6309 2.36704 36
28.3773 -17.1661 2.61344 36
28.5332 -17.2417 2.73263 17
30.9353 -18.6542 2.91914 28
30.8824 -18.6097 3.04305 12
31.1243 -18.9324 3.50199 12
nan nan nan nan
28.3745 -17.13 4.84449 28
27.9001 -16.8076 5.65509 28
29.1545 -17.4693 7.28476 17
39.7748 -24.0586 11.3245 37
39.9196 -23.8325 14.3138 34
3.06476 -1.9112 0.32435 4
2.39398 -1.47704 1.00689 57
2.42803 -1.50134 1.18452 38
7.20177 -4.41858 -0.0497572 5
nan nan nan nan
9.57757 -5.90296 -0.0731487 10
10.9455 -6.73608 -0.116107 11
11.9631 -7.35022 -0.0898228 11
15.0303 -9.24658 -0.408836 11
15.7373 -9.63132 -0.356187 41
15.7916 -9.718 -0.268607 41
15.7694 -9.67524 -0.149599 40
15.7676 -9.67188 -0.0480249 38
15.7659 -9.64039 0.0186248 43
15.7741 -9.63012 0.0833001 41
15.7434 -9.67416 0.149722 42
15.7404 -9.65324 0.215742 43
15.7591 -9.63429 0.279603 43
15.7668 -9.62365 0.347393 41
15.752 -9.67751 0.4087 41
15.7228 -9.64048 0.476951 39
16.4784 -10.0484 0.472679 28
16.6622 -10.1684 0.523801 20
16.654 -10.2014 0.592084 25
16.4905 -10.1052 0.67361 25
16.5045 -10.0622 0.741163 25
16.8428 -10.2726 0.784202 31
nan nan nan nan
16.3209 -10.0031 0.955119 9
16.4209 -10.0822 0.982134 23
16.3201 -9.94393 1.02268 14
16.3014 -9.99695 1.05652 11
16.4302 -10.0188 1.08319 25
16.4336 -10.0644 1.11627 15
16.5125 -10.1107 1.14583 8
16.508 -10.1019 1.1799 11
16.3497 -10.0188 1.22119 6
32.5777 -19.9908 0.51733 28
32.4983 -19.7993 0.581367 29
32.6762 -20.0302 0.640097 30
32.4601 -19.7939 0.715752 34
32.6869 -20.0021 0.773552 33
32.3958 -19.8213 0.850811 35
32.6239 -19.9503 0.909441 36
32.426 -19.8655 0.982491 35
32.5364 -19.8992 1.0455 36
32.5016 -19.844 1.11288 36
32.5219 -19.8615 1.17883 35
32.5245 -19.8214 1.24502 38
32.4827 -19.9591 1.31344 37
32.564 -19.8189 1.37695 38
32.5871 -19.9942 1.44442 40
32.6877 -20.0138 1.51588 38
32.7938 -20.0526 1.57439 37
32.7917 -20.0093 1.64099 35
32.7685 -20.0002 1.70826 38
32.8737 -20.0302 1.77404 39
33.0221 -20.2864 1.84276 14
39.7462 -24.175 1.88793 32
39.693 -24.3489 1.97237 25
39.7234 -24.1456 2.04994 25
39.593 -24.2055 2.13304 3
20.9226 -12.7586 2.11367 8
nan nan nan nan
nan nan nan nan
20.8779 -12.8199 2.24319 32
20.8617 -12.6828 2.28287 34
20.8561 -12.7871 2.32782 13
20.912 -12.704 2.36865 34
20.899 -12.7417 2.45487 31
28.5069 -17.362 2.73571 13
nan nan nan nan
30.9539 -18.8003 3.05006 23
22.738 -13.9352 3.10152 14
nan nan nan nan
28.14 -17.1226 4.82912 38
27.9982 -17.0001 5.67788 36
29.3764 -17.7418 7.33852 36
39.8075 -24.2493 11.3529 35
39.9142 -24.0185 14.3412 34
3.06199 -1.92437 0.322464 4
2.36888 -1.47298 1.01552 95
2.41468 -1.50475 1.18749 38
nan nan nan nan
2.50649 -1.55962 1.38909 36
9.55181 -5.93551 -0.0714598 6
10.9232 -6.77242 -0.115301 6
11.9795 -7.41805 -0.0962822 9
15.1538 -9.39567 -0.432758 11
15.7544 -9.71753 -0.36259 41
15.7956 -9.79669 -0.272863 41
15.7737 -9.75381 -0.153586 40
15.7719 -9.75045 -0.0517702 41
15.7661 -9.71631 0.0155675 39
15.7803 -9.7059 0.0798031 39
15.746 -9.75545 0.146506 41
15.7448 -9.73175 0.21262 40
15.7679 -9.71542 0.276171 39
15.7773 -9.70203 0.344082 41
15.7589 -9.76147 0.405681 37
15.7273 -9.71894 0.474453 37
16.4306 -10.0981 0.475138 20
16.5393 -10.1688 0.532964 23
16.4596 -10.1655 0.606776 28
16.4595 -10.1654 0.674542 26
16.4736 -10.1224 0.742112 28
16.4346 -10.0984 0.812582 30
16.467 -10.168 0.877114 29
16.2689 -10.0496 0.957475 31
16.3815 -10.1368 0.983669 9
16.2513 -9.97996 1.02599 14
16.241 -10.0381 1.05927 11
16.3374 -10.0367 1.08774 17
nan nan nan nan
16.4117 -10.1318 1.15049 12
32.6808 -20.1462 0.371396 33
16.4167 -10.1388 1.21756 5
32.6226 -20.1754 0.514613 36
32.5781 -20.0041 0.57735 29
32.6402 -20.1652 0.641205 34
32.6285 -20.0453 0.708839 29
32.7956 -20.2263 0.769354 31
32.5527 -20.0816 0.845266 36
32.7619 -20.1843 0.904986 37
32.4416 -20.0311 0.982321 36
32.5008 -20.0336 1.04702 38
32.5599 -20.036 1.11189 34
32.6185 -20.0771 1.17714 35
32.6503 -20.0468 1.24294 31
32.821 -20.325 1.3073 30
32.8534 -20.1604 1.37264 35
32.7673 -20.2546 1.4426 34
32.69 -20.1724 1.51733 39
32.8002 -20.2141 1.57593 37
32.8537 -20.2048 1.64207 39
32.8902 -20.2324 1.70908 38
32.9903 -20.2516 1.77519 38
39.613 -24.5253 1.81345 39
39.6702 -24.3284 1.89112 39
39.578 -24.4593 1.97531 38
39.6517 -24.2919 2.05302 34
nan nan nan nan
20.8694 -12.8263 2.11524 28
nan nan nan nan
20.8371 -12.782 2.19984 18
20.7055 -12.8138 2.24333 35
20.8577 -12.7853 2.28513 33
20.7285 -12.8036 2.32802 35
20.8675 -12.7769 2.37026 35
20.7309 -12.7386 2.45379 33
23.0197 -14.1185 2.59718 37
30.7413 -18.8384 2.92224 17
30.8625 -18.8925 3.05157 20
22.7001 -14.0157 3.10361 13
nan nan nan nan
28.0969 -17.231 4.83301 34
27.9403 -17.0852 5.67927 41
29.2729 -17.826 7.33397 36
39.8058 -24.4295 11.3745 35
39.9493 -24.2298 14.3814 34
3.0477 -1.93027 0.326951 9
2.35581 -1.47628 1.01907 60
2.39726 -1.50553 1.19186 43
nan nan nan nan
2.50521 -1.57098 1.38826 37
nan nan nan nan
10.8966 -6.80607 -0.113681 4
12.0627 -7.52797 -0.114547 9
15.2807 -9.54837 -0.457334 11
15.7626 -9.79874 -0.367715 41
15.8077 -9.8808 -0.278329 41
15.786 -9.83778 -0.158723 43
15.78 -9.83181 -0.0560606 40
15.7786 -9.80022 0.0109138 40
15.7929 -9.78983 0.0753399 40
15.7516 -9.83138 0.143174 37
15.7531 -9.81302 0.209022 42
15.772 -9.7941 0.273211 39
15.7815 -9.78073 0.341285 37
15.7604 -9.83482 0.403405 42
15.7441 -9.80544 0.470725 38
16.3868 -10.1502 0.477201 29
16.4911 -10.2187 0.535377 28
16.4259 -10.22 0.607989 28
16.424 -10.2228 0.675818 29
16.4255 -10.172 0.744364 30
16.4035 -10.1584 0.813546 25
16.3697 -10.183 0.882685 27
16.3016 -10.1486 0.954368 31
16.3587 -10.2019 0.984147 20
16.1867 -10.0183 1.02904 17
16.2779 -10.1396 1.05633 11
16.3023 -10.0937 1.089 20
16.4394 -10.2264 1.11468 9
32.5486 -20.2404 0.309924 20
39.7011 -24.6555 0.0195048 23
32.5666 -20.2697 0.442899 28
39.6456 -24.7107 0.193114 25
32.5464 -20.1414 0.578195 37
32.7224 -20.3742 0.637359 28
32.6901 -20.2407 0.706136 30
32.7036 -20.3275 0.772695 0
32.6473 -20.2897 0.841923 33
32.784 -20.3482 0.904407 28
32.6474 -20.3159 0.976155 34
32.8129 -20.3844 1.03829 38
32.7532 -20.3129 1.1072 30
32.6502 -20.2541 1.17708 37
32.8395 -20.3212 1.23943 36
39.6292 -24.732 1.16417 25
39.7095 -24.5581 1.24246 30
39.622 -24.6733 1.32685 38
39.6161 -24.6376 1.41621 33
39.6141 -24.6047 1.48916 38
39.6333 -24.5657 1.56973 38
39.5714 -24.5338 1.6517 37
39.6711 -24.5447 1.73157 38
39.6417 -24.7348 1.81599 41
39.7296 -24.5561 1.89379 39
39.6325 -24.675 1.97814 38
21.0387 -12.9905 2.03107 11
21.0056 -13.0439 2.07535 1
20.918 -12.957 2.11737 11
20.6763 -12.815 2.15859 36
20.7924 -12.8547 2.20145 37
20.6564 -12.8833 2.24488 29
20.6853 -12.7792 2.285 35
20.6222 -12.8326 2.32854 35
20.6398 -12.7367 2.36863 30
20.6438 -12.7845 2.45446 38
22.8912 -14.1554 2.59706 37
30.6668 -18.9403 2.92436 12
23.3441 -14.4025 2.79932 12
22.6577 -14.0935 3.10548 10
27.1189 -16.781 3.87708 33
nan nan nan nan
27.8857 -17.1926 5.68265 36
29.1766 -17.9071 7.33007 12
39.8492 -24.6383 11.407 37
39.9546 -24.424 14.4127 34
3.02195 -1.92878 0.337807 5
2.32284 -1.46692 1.03107 39
2.38798 -1.51135 1.19344 96
2.44657 -1.53354 1.30761 42
2.47905 -1.5667 1.3936 40
2.54499 -1.60841 1.45275 23
2.58948 -1.63071 1.50336 31
12.0951 -7.60697 -0.123939 8
15.3983 -9.69678 -0.48053 12
15.7663 -9.87749 -0.372199 43
15.8195 -9.96511 -0.283787 42
15.7938 -9.91931 -0.163275 29
15.7878 -9.91333 -0.0603437 35
15.7824 -9.87905 0.00733542 39
15.795 -9.87146 0.0719789 36
15.7594 -9.91285 0.139411 39
15.7526 -9.88919 0.206394 38
15.7758 -9.87293 0.270257 40
15.7837 -9.86232 0.338556 36
15.764 -9.91369 0.400767 39
15.7352 -9.87628 0.469477 34
16.2626 -10.1519 0.486765 31
16.4536 -10.2791 0.536721 36
16.3944 -10.28 0.608906 25
16.384 -10.2775 0.677438 20
16.3899 -10.2294 0.745639 33
16.3747 -10.2238 0.814267 23
16.3383 -10.2428 0.883667 28
16.3296 -10.2452 0.951544 23
16.3146 -10.2537 0.985948 23
16.317 -10.1778 1.02033 22
16.3059 -10.2362 1.0539 14
16.2695 -10.156 1.09009 25
16.3782 -10.2678 1.11733 13
16.8461 -10.559 1.12673 13
39.6912 -24.8321 0.0188333 31
39.5509 -24.8085 0.107016 11
39.6523 -24.9075 0.191944 29
32.7176 -20.4057 0.57013 23
39.6092 -24.8551 0.349213 36
32.7048 -20.416 0.705265 17
nan nan nan nan
32.6949 -20.4779 0.840239 28
39.7216 -24.8366 0.67196 38
39.5505 -24.8034 0.759261 36
39.6303 -24.8118 0.838284 39
39.6252 -24.767 0.919872 35
39.6322 -24.7779 1.00127 39
39.665 -24.7473 1.08179 37
39.5808 -24.8941 1.16645 39
39.6787 -24.7309 1.24449 38
39.6077 -24.847 1.32862 35
39.6147 -24.8289 1.41803 37
39.6212 -24.8012 1.49103 35
39.6364 -24.7595 1.57184 36
39.6552 -24.7778 1.65327 34
39.6488 -24.7322 1.73434 33
39.6398 -24.9263 1.81868 38
21.0884 -13.1377 1.94646 14
21.1117 -13.2422 1.99118 9
20.9975 -13.0665 2.0327 10
20.9853 -13.133 2.07708 3
20.8939 -13.0431 2.11911 28
20.6272 -12.8844 2.16016 29
20.7451 -12.9308 2.20314 36
20.6028 -12.95 2.24639 31
20.6364 -12.8486 2.28655 36
20.5711 -12.8956 2.32993 33
20.5867 -12.8034 2.37008 28
20.5397 -12.8194 2.45476 33
22.8774 -14.263 2.59992 31
27.7275 -17.2592 2.8399 25
23.3361 -14.5103 2.80259 14
22.6151 -14.1711 3.10736 30
27.0178 -16.8491 3.87625 39
21.0835 -13.1331 4.13823 34
27.8308 -17.2997 5.68604 35
29.412 -18.1931 7.387 35
39.8334 -24.8114 11.4257 37
39.9713 -24.6262 14.4478 37
2.99626 -1.92714 0.348661 6
2.32173 -1.47759 1.02956 39
2.37868 -1.51712 1.19502 53
2.43713 -1.5395 1.30898 37
2.46946 -1.57274 1.39482 43
2.52307 -1.60632 1.45657 30
2.57963 -1.63712 1.50437 70
12.0853 -7.65981 -0.125945 5
15.5026 -9.83817 -0.50167 13
15.7654 -9.95375 -0.376043 43
15.8266 -10.047 -0.28863 39
15.7927 -9.9957 -0.166664 8
15.791 -9.99237 -0.0640688 30
15.7857 -9.95803 0.00376379 29
15.7984 -9.95046 0.0685633 34
15.7518 -9.9811 0.137587 34
15.7517 -9.96546 0.203772 28
15.7792 -9.95191 0.26731 36
15.7872 -9.94131 0.335773 28
15.7648 -9.98729 0.398503 31
15.747 -9.9605 0.466174 36
16.1512 -10.1609 0.495132 13
16.5865 -10.4428 0.522919 20
16.4067 -10.3637 0.606164 9
nan nan nan nan
16.4007 -10.3158 0.74334 30
16.6346 -10.467 0.794019 28
nan nan nan nan
16.3064 -10.3102 0.952 29
nan nan nan nan
16.218 -10.1949 1.02542 35
16.3419 -10.3385 1.05098 12
16.3397 -10.2793 1.08542 23
nan nan nan nan
nan nan nan nan
16.4512 -10.3736 1.18079 20
39.5444 -24.9972 0.106248 31
16.3469 -10.3476 1.25666 9
39.5626 -24.8675 0.269429 36
nan nan nan nan
39.6206 -24.9267 0.430301 38
16.2525 -10.2622 1.39187 4
39.5844 -24.9754 0.595056 38
nan nan nan nan
nan nan nan nan
nan nan nan nan
39.6358 -24.9665 0.920299 39
39.6301 -24.9695 1.00222 34
39.6631 -24.9388 1.08291 38
nan nan nan nan
39.6812 -24.9155 1.2458 37
nan nan nan nan
nan nan nan nan
nan nan nan nan
39.664 -24.9696 1.57368 36
39.6574 -24.972 1.65558 36
39.6808 -24.945 1.73663 37
nan nan nan nan
39.7056 -24.9162 1.89942 38
20.9766 -13.2597 1.99286 31
20.956 -13.1424 2.03434 37
20.9478 -13.2115 2.07874 3
20.8694 -13.1293 2.12086 31
20.5863 -12.959 2.1618 29
20.6956 -13.0004 2.20471 35
20.5533 -13.0191 2.24795 26
20.5979 -12.9196 2.28813 30
20.4963 -12.9486 2.33105 20
20.5462 -12.8778 2.37175 28
nan nan nan nan
nan nan nan nan
27.687 -17.3616 2.84246 12
23.3276 -14.6181 2.80586 34
22.5671 -14.2565 3.10942 28
27.1742 -17.0786 3.89336 39
21.0332 -13.2039 4.13944 35
nan nan nan nan
29.3135 -18.2668 7.38223 11
nan nan nan nan
39.9913 -24.8313 14.4843 36
nan nan nan nan
2.29284 -1.47046 1.03986 42
2.35323 -1.51244 1.20217 46
2.4195 -1.54018 1.31272 37
2.45575 -1.5761 1.39707 42
2.49677 -1.60188 1.46131 41
2.52819 -1.61692 1.51353 43
12.0836 -7.718 -0.129424 4
15.5768 -9.96172 -0.518051 11
15.7558 -10.0248 -0.378613 41
15.8292 -10.1263 -0.292858 32
15.8039 -10.0802 -0.171779 19
15.7855 -10.0662 -0.0666869 9
15.7803 -10.0318 0.00126457 9
15.8014 -10.0296 0.065154 13
15.7631 -10.0655 0.133339 3
15.7547 -10.0445 0.200676 9
15.7823 -10.031 0.264369 25
15.7735 -10.0098 0.334778 37
15.7719 -10.0691 0.395449 13
15.7417 -10.0342 0.464526 29
16.0526 -10.1772 0.502305 10
16.6973 -10.5942 0.511026 14
nan nan nan nan
nan nan nan nan
16.5795 -10.5093 0.728066 11
17.0827 -10.8325 0.759998 23
nan nan nan nan
nan nan nan nan
16.7099 -10.6656 0.959268 25
nan nan nan nan
16.3521 -10.4251 1.04955 14
16.3291 -10.3524 1.08527 30
16.656 -10.6045 1.10092 20
