# .PCD v0.7 - Point Cloud Data file format
VERSION 0.7
FIELDS x y z intensity
SIZE 4 4 4 4
TYPE F F F F
COUNT 1 1 1 1
WIDTH 1812
HEIGHT 1
VIEWPOINT 0 0 0 1 0 0 0
POINTS 1812
DATA ascii
-1.47815 -18.6022 2.75391 14
-1.45995 -18.5058 2.81465 11
nan nan nan nan
-1.59079 -19.2763 3.15359 32
-1.89782 -23.7399 3.83648 17
nan nan nan nan
nan nan nan nan
-1.18329 -15.3386 4.68113 10
-1.07726 -13.2703 4.92253 37
-1.40551 -18.4581 7.26497 17
nan nan nan nan
-0.148183 -1.73498 1.42685 1
-0.173194 -1.99291 1.47189 5
-0.188919 -2.27708 1.49813 4
-0.225664 -2.57972 1.51446 3
-0.480477 -5.51469 1.08914 9
nan nan nan nan
nan nan nan nan
-0.36501 -4.23603 1.5045 4
-0.350867 -4.19151 1.54664 43
-0.363719 -4.22765 1.56496 33
-0.373966 -4.35415 1.57847 9
-0.379502 -4.45104 1.59314 6
-0.38104 -4.56224 1.59877 6
-0.391758 -4.74754 1.5988 6
-0.421182 -4.87158 1.60529 5
-0.432935 -5.07715 1.60613 3
nan nan nan nan
nan nan nan nan
nan nan nan nan
nan nan nan nan
nan nan nan nan
nan nan nan nan
nan nan nan nan
nan nan nan nan
nan nan nan nan
-0.565065 -6.83619 1.70655 8
-0.580345 -6.81595 1.73135 3
-0.585425 -6.86166 1.75348 3
-0.589391 -6.85172 1.76584 3
-0.568401 -6.88895 1.77636 8
-0.589364 -6.90759 1.78795 4
-0.572981 -6.92929 1.7992 12
-0.589535 -6.90819 1.81203 13
-0.597244 -7.0133 1.82132 11
-0.672248 -7.94539 1.81084 57
-0.677141 -7.9353 1.82498 39
nan nan nan nan
nan nan nan nan
-1.42982 -16.7426 1.71394 43
-1.47844 -17.8025 1.72632 33
-1.39744 -16.4652 1.77624 31
-1.39232 -16.4209 1.80555 34
-1.3949 -16.5365 1.83299 23
-1.5328 -17.9652 1.84982 13
-1.49739 -17.7126 1.88281 30
-1.49241 -17.8185 1.91309 29
-1.49622 -17.8433 1.94418 32
-1.49208 -17.9992 1.97494 31
-1.53139 -17.6396 2.00708 36
-1.46783 -17.7504 2.03734 38
-1.51458 -17.621 2.06853 30
nan nan nan nan
-1.49444 -17.6726 2.13024 30
nan nan nan nan
-1.49513 -17.8626 2.19388 34
-1.50234 -18.1174 2.22811 12
-1.73447 -19.9788 2.28712 17
-1.63903 -19.861 2.31915 16
-1.7167 -19.9693 2.35664 12
-1.64219 -20.0201 2.39158 9
-1.69352 -20.0202 2.42724 3
-1.51664 -18.1732 2.41959 31
-1.67233 -19.9701 2.49583 6
nan nan nan nan
-1.59533 -18.4046 2.52226 37
-1.52041 -18.4553 2.55494 30
-1.58377 -18.454 2.58804 23
-1.50812 -18.4193 2.61819 43
-1.54807 -18.544 2.68767 23
-1.54517 -18.6218 2.75562 29
-1.55283 -18.8441 2.83046 0
-1.56028 -19.051 2.90616 29
-1.64743 -19.1463 3.14688 13
-1.97703 -23.6883 3.83392 30
nan nan nan nan
nan nan nan nan
-1.23932 -15.3637 4.68687 16
-1.12248 -13.2518 4.91981 35
-1.47095 -18.4624 7.26842 27
nan nan nan nan
-0.15548 -1.74862 1.42211 1
-0.180121 -1.99232 1.47197 5
-0.196411 -2.27157 1.49931 4
-0.233765 -2.56916 1.51643 3
-0.27202 -2.98803 1.5107 11
nan nan nan nan
nan nan nan nan
-0.379766 -4.23475 1.50466 4
-0.36547 -4.19028 1.5468 40
-0.378448 -4.22637 1.56512 33
-0.389138 -4.35283 1.57863 9
-0.395013 -4.44971 1.59331 6
-0.397373 -4.56586 1.5985 5
-0.408304 -4.74616 1.59898 6
-0.440381 -4.89491 1.60343 5
-0.451512 -5.08555 1.60554 3
nan nan nan nan
nan nan nan nan
nan nan nan nan
nan nan nan nan
nan nan nan nan
nan nan nan nan
nan nan nan nan
nan nan nan nan
nan nan nan nan
-0.588905 -6.83418 1.70681 6
-0.604555 -6.81887 1.73141 1
-0.609356 -6.85958 1.75374 3
-0.61418 -6.85958 1.76575 3
-0.592858 -6.89192 1.77646 12
-0.613901 -6.91047 1.78805 4
-0.598878 -6.94717 1.79887 16
-0.614951 -6.92103 1.81187 29
-0.626982 -7.07093 1.82003 11
-0.700401 -7.94798 1.81102 61
-0.706149 -7.94783 1.82494 40
-1.46063 -16.3325 1.66738 12
-1.51676 -17.5977 1.66849 36
-1.46162 -16.4388 1.71974 23
-1.43855 -16.6218 1.74528 35
-1.46104 -16.5299 1.7759 20
-1.44961 -16.416 1.80617 25
-1.55314 -17.6771 1.82182 39
nan nan nan nan
-1.55919 -17.7072 1.88348 30
-1.55023 -17.7634 1.91402 31
-1.54801 -17.7185 1.94524 30
-1.53116 -17.7199 1.97604 32
-1.59743 -17.6839 2.00776 28
-1.52806 -17.7253 2.03798 28
-1.57919 -17.6505 2.06932 30
-1.58176 -17.8359 2.10417 13
-1.55392 -17.6424 2.13073 9
-1.7278 -19.8302 2.18102 10
nan nan nan nan
-1.71879 -19.8803 2.25086 21
-1.80061 -19.9328 2.2873 17
-1.60694 -18.6747 2.30105 23
-1.78729 -19.9732 2.35757 15
nan nan nan nan
-1.61989 -18.3858 2.39338 1
-1.60089 -18.4068 2.42577 28
-1.60627 -18.4105 2.45813 6
-1.59086 -18.436 2.49079 25
-1.66271 -18.4338 2.52394 14
-1.58526 -18.4548 2.55578 22
-1.64864 -18.4533 2.58889 28
-1.58008 -18.5035 2.62188 28
-1.75153 -20.1313 2.74735 14
-2.05076 -23.698 2.96228 14
nan nan nan nan
-1.62553 -19.0305 2.90617 37
-1.67694 -18.7228 3.12259 33
nan nan nan nan
nan nan nan nan
nan nan nan nan
-1.29596 -15.3936 4.69347 6
-1.16887 -13.2477 4.92031 33
-1.57351 -18.9122 7.39925 31
nan nan nan nan
-0.161552 -1.7481 1.42217 1
-0.186587 -1.9869 1.47335 5
-0.203917 -2.27093 1.49939 4
-0.24225 -2.56346 1.51747 3
-0.281962 -2.98217 1.51163 34
nan nan nan nan
nan nan nan nan
-0.394517 -4.23342 1.50482 3
-0.380069 -4.189 1.54696 40
-0.393638 -4.23 1.56476 33
-0.404761 -4.35642 1.57831 9
-0.410519 -4.44832 1.59347 6
-0.414187 -4.57438 1.59778 5
-0.424465 -4.74976 1.59872 6
-0.45698 -4.8884 1.60402 5
-0.470153 -5.09389 1.60495 3
nan nan nan nan
-0.613647 -6.84616 1.51605 3
nan nan nan nan
nan nan nan nan
nan nan nan nan
nan nan nan nan
nan nan nan nan
-0.630153 -6.8385 1.65911 1
nan nan nan nan
-0.611546 -6.83221 1.70705 2
-0.629248 -6.82668 1.73127 1
-0.632821 -6.85245 1.75418 3
-0.639494 -6.87233 1.76549 3
-0.618236 -6.90475 1.77622 1
-0.637542 -6.90332 1.78847 4
-0.622346 -6.95014 1.79897 13
-0.638635 -6.91388 1.81227 27
-0.684092 -7.4221 1.8111 11
-0.728581 -7.95047 1.81119 59
-0.733414 -7.94035 1.82535 38
-1.51437 -16.2925 1.66871 30
nan nan nan nan
-1.52081 -16.4535 1.72001 31
-1.4871 -16.5121 1.74752 36
-1.52509 -16.5945 1.77556 23
-1.50688 -16.4108 1.80678 30
-1.61118 -17.6317 1.8229 24
-1.6324 -17.6753 1.85354 41
-1.62143 -17.7067 1.88411 40
-1.60542 -17.6832 1.91506 35
-1.60123 -17.6183 1.94621 30
-1.59389 -17.7244 1.97669 29
-1.82276 -19.4256 2.00892 26
nan nan nan nan
-1.64402 -17.6797 2.07012 17
-1.72798 -18.7413 2.11004 31
nan nan nan nan
-1.783 -19.6697 2.18037 10
-1.79719 -19.8035 2.21625 21
-1.80119 -20.0185 2.25341 21
nan nan nan nan
-1.56569 -17.4788 2.2827 14
nan nan nan nan
-1.64716 -18.4944 2.36356 10
-1.67129 -18.2406 2.3911 3
-1.65838 -18.3264 2.42474 12
-1.66691 -18.3649 2.45784 12
-1.65925 -18.4751 2.49268 28
-1.7252 -18.4079 2.52406 12
-1.63947 -18.3347 2.55304 17
-1.70983 -18.4126 2.58847 6
nan nan nan nan
nan nan nan nan
-1.66836 -18.571 2.75538 17
-1.71017 -19.1213 2.8446 17
-1.69464 -19.0545 2.90831 46
-1.74279 -18.7218 3.12359 31
-1.67734 -18.5351 3.43736 25
nan nan nan nan
nan nan nan nan
nan nan nan nan
-1.21569 -13.2482 4.92188 53
-1.64684 -18.9878 7.42326 32
nan nan nan nan
-0.166708 -1.73812 1.42544 3
-0.193493 -1.98626 1.47342 5
-0.211286 -2.26047 1.50167 4
-0.25117 -2.56262 1.51757 3
-0.292343 -2.98119 1.51174 42
nan nan nan nan
nan nan nan nan
-0.410221 -4.24193 1.5038 3
-0.394663 -4.18767 1.54711 43
-0.408376 -4.22862 1.56492 33
-0.419941 -4.355 1.57847 9
-0.426494 -4.45184 1.59318 6
-0.430128 -4.57293 1.59795 5
-0.442312 -4.75315 1.59848 6
-0.474974 -4.89671 1.60339 5
nan nan nan nan
nan nan nan nan
-0.641967 -6.87865 1.51383 3
nan nan nan nan
nan nan nan nan
nan nan nan nan
-0.640861 -6.86482 1.60979 2
-0.650558 -6.80015 1.6374 3
-0.653998 -6.83627 1.65936 4
-0.644378 -6.91356 1.67952 4
-0.639361 -6.85977 1.70602 3
-0.6559 -6.8543 1.73033 1
-0.657196 -6.85518 1.75425 3
-0.663944 -6.87504 1.76557 3
-0.641854 -6.89758 1.77665 1
-0.66162 -6.90106 1.78873 5
-0.647333 -6.94284 1.79939 13
-0.66275 -6.91161 1.81253 16
-0.706661 -7.38484 1.81228 11
-0.756786 -7.95287 1.81137 59
-0.761589 -7.94272 1.82553 34
-1.59137 -16.4961 1.66502 23
-1.52154 -16.3224 1.69383 36
-1.5696 -16.3585 1.72217 17
-1.54477 -16.4767 1.74863 23
-1.70096 -17.8283 1.75917 20
-1.56461 -16.4105 1.80733 17
-1.68543 -17.7604 1.82218 24
-1.69407 -17.6695 1.8542 37
-1.68037 -17.671 1.88497 23
nan nan nan nan
nan nan nan nan
-1.6691 -17.828 1.97723 28
-1.82866 -18.7821 2.00943 26
-1.77039 -18.9887 2.04189 28
-1.91973 -19.8936 2.07926 15
-1.78862 -18.6854 2.11045 31
-1.76892 -18.5967 2.13911 36
-1.7536 -18.623 2.17169 31
nan nan nan nan
-1.74747 -18.6578 2.23719 29
nan nan nan nan
-1.61698 -17.3687 2.28167 28
-1.66898 -17.288 2.31135 28
-1.60206 -17.3038 2.34108 14
-1.64923 -17.3339 2.37256 1
nan nan nan nan
-1.73713 -18.4237 2.46013 20
-1.72651 -18.4639 2.49327 27
-1.78415 -18.3471 2.5232 17
-1.69701 -18.2591 2.55163 25
-1.76022 -18.2623 2.58456 30
-1.67109 -18.0789 2.6094 17
-1.68653 -17.9347 2.66779 17
-2.18311 -23.3299 2.94971 11
-1.77879 -19.135 2.8462 31
-1.76301 -19.0683 2.90997 30
-1.7981 -18.6112 3.11803 36
-1.73836 -18.4894 3.43497 41
nan nan nan nan
nan nan nan nan
nan nan nan nan
-1.26254 -13.2487 4.92345 36
nan nan nan nan
nan nan nan nan
-0.17511 -1.76111 1.4175 1
-0.199906 -1.98079 1.4748 5
-0.219148 -2.25974 1.50176 4
-0.259109 -2.55197 1.51954 3
-0.30272 -2.98018 1.51185 53
nan nan nan nan
nan nan nan nan
-0.424997 -4.24049 1.50396 3
-0.409252 -4.18629 1.54727 39
-0.423109 -4.22718 1.56507 33
-0.436097 -4.36343 1.57765 9
-0.442008 -4.45034 1.59335 6
-0.446064 -4.57142 1.59812 5
-0.459842 -4.76151 1.59781 5
-0.49204 -4.89504 1.60357 5
nan nan nan nan
nan nan nan nan
nan nan nan nan
nan nan nan nan
nan nan nan nan
nan nan nan nan
nan nan nan nan
nan nan nan nan
nan nan nan nan
nan nan nan nan
-0.661348 -6.83763 1.70714 4
-0.678821 -6.84203 1.73098 1
-0.682091 -6.8628 1.75414 1
-0.688917 -6.88264 1.76548 3
-0.666874 -6.90526 1.77658 1
-0.686186 -6.90369 1.78883 5
-0.672034 -6.94552 1.79951 13
-0.686858 -6.90927 1.81278 16
-0.745204 -7.51166 1.80919 11
-0.785507 -7.96013 1.81142 54
-0.791272 -7.95992 1.82538 27
-1.66434 -16.6447 1.66246 20
-1.57752 -16.3071 1.69463 38
-1.76049 -17.6961 1.69968 20
-1.5989 -16.4666 1.74929 17
-1.75678 -17.7576 1.76071 15
-1.74905 -17.6936 1.79256 21
-1.83449 -18.6401 1.81382 29
-1.80121 -18.1212 1.851 14
-1.85393 -18.7995 1.87805 19
-1.91202 -19.5426 1.90715 30
-1.8696 -19.0896 1.94282 27
-1.83218 -18.8923 1.97633 23
-1.92675 -19.099 2.01024 26
-1.82367 -18.848 2.04232 28
-1.86435 -18.638 2.07517 15
-1.85186 -18.6592 2.11103 13
-1.83578 -18.6103 2.13994 34
-1.81713 -18.6018 2.17224 37
-1.8126 -18.5366 2.20412 36
-1.80401 -18.5972 2.23716 32
-1.74573 -17.2963 2.25186 20
-1.66705 -17.2535 2.28056 28
-1.72484 -17.2373 2.31119 34
-1.66198 -17.2932 2.34163 29
-1.71759 -17.4077 2.37491 3
-1.77124 -18.1601 2.42254 34
-1.70252 -17.4076 2.43568 10
nan nan nan nan
-1.82269 -18.0871 2.51666 28
-1.73296 -17.9646 2.54361 35
-1.79568 -17.9725 2.57618 30
-1.72323 -17.9586 2.60623 31
-1.74623 -17.8988 2.66734 10
-1.85688 -19.1303 2.78006 30
-1.84081 -19.079 2.84471 38
-1.81767 -18.9377 2.90475 23
-1.86807 -18.6544 3.1217 36
-1.80392 -18.4931 3.43643 25
-2.33733 -24.0313 4.52398 6
nan nan nan nan
nan nan nan nan
-1.3094 -13.2489 4.92502 31
nan nan nan nan
nan nan nan nan
-0.180735 -1.75581 1.41917 3
-0.206282 -1.9753 1.47618 5
-0.226903 -2.25409 1.50294 4
-0.266977 -2.5413 1.52151 3
-0.312583 -2.97422 1.51278 43
nan nan nan nan
nan nan nan nan
-0.441308 -4.25382 1.50236 3
-0.425847 -4.20463 1.54525 49
-0.438352 -4.23065 1.56471 33
-0.450793 -4.35695 1.5783 9
-0.458533 -4.45869 1.59259 6
-0.463 -4.57976 1.59741 5
-0.477266 -4.75981 1.598 6
-0.511152 -4.91314 1.60212 5
-0.69358 -6.74492 1.47511 3
nan nan nan nan
-0.689608 -6.85903 1.51542 1
nan nan nan nan
nan nan nan nan
nan nan nan nan
nan nan nan nan
nan nan nan nan
nan nan nan nan
-0.687592 -6.85922 1.68237 4
-0.686384 -6.83517 1.7074 4
-0.704716 -6.85951 1.73044 1
-0.706537 -6.86536 1.75422 3
-0.713437 -6.88517 1.76556 3
-0.691457 -6.90787 1.77667 3
-0.711292 -6.91121 1.78877 5
-0.69747 -6.94302 1.79978 13
-0.714013 -6.93667 1.81221 28
-0.768351 -7.47919 1.81025 10
-0.814288 -7.9673 1.81148 53
-0.820573 -7.97204 1.82534 12
-1.84288 -17.8023 1.63923 22
-1.63141 -16.2716 1.6958 17
-1.82223 -17.6899 1.70033 15
nan nan nan nan
-1.80856 -17.6519 1.76273 11
-1.81383 -17.7172 1.79285 21
-1.80326 -17.6885 1.8241 25
-1.89616 -18.4232 1.84908 23
-1.91851 -18.783 1.87881 19
-1.91612 -18.904 1.91097 27
-1.92408 -18.9636 1.9439 27
-1.90872 -18.9249 1.97704 23
-2.01516 -19.301 2.01103 33
-1.99356 -19.8813 2.04521 26
-1.79971 -17.378 2.07098 33
-1.77849 -17.3047 2.10387 35
-1.76958 -17.3205 2.13114 31
-1.75053 -17.297 2.16107 33
-1.75112 -17.2866 2.19126 31
-1.74367 -17.2869 2.22144 30
-1.80247 -17.2553 2.25199 19
-1.73124 -17.2873 2.28184 31
nan nan nan nan
-1.72234 -17.2872 2.34227 29
-1.84343 -18.0381 2.38919 3
-1.81652 -17.9748 2.41906 28
-1.79609 -17.7248 2.44438 33
-1.81444 -18.0134 2.483 36
-1.8848 -18.0706 2.51705 13
-1.79121 -17.9136 2.54293 28
-1.85072 -17.8916 2.57446 17
-1.71027 -17.1916 2.58126 36
-1.74585 -17.2712 2.64488 33
-1.93203 -19.1731 2.78283 40
-1.90048 -19.0028 2.84234 33
-1.87787 -18.8716 2.90261 36
nan nan nan nan
-1.87053 -18.5064 3.43866 20
-1.79482 -17.8085 3.87161 9
nan nan nan nan
nan nan nan nan
-1.39402 -13.6182 5.00826 31
nan nan nan nan
nan nan nan nan
-0.186832 -1.75519 1.41923 3
-0.212623 -1.96979 1.47756 5
-0.233838 -2.2485 1.50411 4
-0.275296 -2.53549 1.52254 3
-0.322935 -2.97313 1.51289 58
nan nan nan nan
nan nan nan nan
-0.456125 -4.25227 1.50251 3
-0.439455 -4.19325 1.54649 42
-0.453092 -4.22911 1.56487 32
-0.466499 -4.36032 1.57798 9
-0.475122 -4.46698 1.59183 6
-0.48156 -4.6029 1.59536 5
-0.493025 -4.75822 1.59816 6
-0.533048 -4.95594 1.59863 4
-0.72183 -6.78709 1.47185 3
nan nan nan nan
-0.713357 -6.86665 1.51495 1
nan nan nan nan
nan nan nan nan
nan nan nan nan
nan nan nan nan
nan nan nan nan
-0.725484 -6.8291 1.66012 5
-0.709443 -6.83693 1.68356 5
-0.710583 -6.84777 1.707 4
-0.728638 -6.85702 1.73069 3
-0.73048 -6.86286 1.75447 3
-0.73745 -6.88265 1.76581 3
-0.716066 -6.9104 1.77676 3
-0.735397 -6.90869 1.78902 6
-0.721513 -6.95062 1.79973 13
-0.737155 -6.9242 1.81274 19
-0.801808 -7.54606 1.80872 9
-0.842079 -7.96442 1.81177 53
-0.847852 -7.96416 1.82575 9
-1.81504 -16.9557 1.65708 28
-1.84831 -17.8073 1.66725 25
-1.88394 -17.6834 1.70098 13
-1.85027 -17.7628 1.73037 16
-1.84595 -17.4168 1.76649 20
-1.86828 -17.6412 1.79433 21
-1.85607 -17.5976 1.82561 31
nan nan nan nan
-1.983 -18.7663 1.87957 19
-2.02488 -19.305 1.90968 27
-2.02004 -19.2402 1.94372 27
-1.98162 -19.0481 1.97749 15
-2.11947 -19.6369 2.01189 34
-2.09026 -20.1378 2.04651 26
-2.17421 -20.3049 2.08316 12
-2.14745 -20.202 2.12152 19
-1.83528 -17.3639 2.13215 14
-1.81455 -17.3256 2.16202 38
-1.80623 -17.2306 2.19135 31
-1.79952 -17.2962 2.2222 41
-1.87769 -17.3881 2.25464 23
-1.84718 -17.8182 2.29117 35
-1.92389 -17.9605 2.32569 30
-1.8514 -17.9474 2.35602 33
-1.89745 -17.947 2.38804 32
-1.88707 -18.0429 2.42146 37
-1.86944 -17.8278 2.44777 33
-1.87 -17.9977 2.48333 28
-1.94681 -18.054 2.51743 29
nan nan nan nan
-1.95513 -18.2775 2.58769 33
-1.93204 -18.7563 2.63489 32
-1.98618 -18.9844 2.7096 14
-1.78362 -17.1342 2.70062 11
-1.75825 -16.9787 2.75371 10
-1.76772 -17.1559 2.82162 28
-1.96965 -18.3728 3.10694 34
-1.93777 -18.5245 3.44127 36
-1.8617 -17.8466 3.87695 14
nan nan nan nan
nan nan nan nan
-1.42218 -13.4286 4.96791 14
nan nan nan nan
nan nan nan nan
-0.192404 -1.74984 1.42089 3
-0.218386 -1.95947 1.48024 5
-0.242188 -2.25254 1.5031 3
-0.283579 -2.52966 1.52358 3
-0.333285 -2.972 1.513 49
nan nan nan nan
nan nan nan nan
-0.470937 -4.25068 1.50267 3
-0.454064 -4.19171 1.54664 46
-0.467826 -4.22752 1.56502 31
-0.482777 -4.36857 1.57716 9
-0.490145 -4.46036 1.59246 6
-0.497063 -4.59626 1.59597 5
-0.510142 -4.76144 1.59791 6
-0.550868 -4.95902 1.59841 4
-0.752014 -6.84401 1.46742 3
nan nan nan nan
-0.738899 -6.87902 1.51414 3
nan nan nan nan
nan nan nan nan
nan nan nan nan
nan nan nan nan
-0.751318 -6.84506 1.63545 4
-0.749295 -6.82654 1.66037 3
-0.733818 -6.83939 1.68358 5
-0.734998 -6.85023 1.70703 4
-0.753094 -6.85942 1.73074 3
-0.754414 -6.86028 1.75472 1
-0.762004 -6.88501 1.76589 3
-0.740701 -6.91283 1.77685 1
-0.760041 -6.91106 1.78912 6
-0.746292 -6.95304 1.79983 19
-0.76185 -6.92656 1.81286 16
-0.839003 -7.6426 1.80642 9
-0.870402 -7.9664 1.81194 49
-0.877818 -7.98104 1.82559 8
-1.82637 -16.517 1.66653 28
-1.8848 -17.5622 1.6724 24
-1.81199 -16.4642 1.72237 23
-1.91009 -17.7363 1.73133 16
-1.80839 -16.5107 1.77936 9
-1.92766 -17.6147 1.79521 25
-2.09123 -19.1865 1.81015 23
-2.12688 -19.3389 1.84269 19
-2.13425 -19.5445 1.87509 20
-2.1192 -19.5463 1.90919 32
-2.1158 -19.4965 1.94361 33
-2.09202 -19.4487 1.97765 30
-2.05915 -18.4715 2.01206 35
nan nan nan nan
-1.92482 -17.3998 2.07239 36
-1.9036 -17.3316 2.10538 36
-1.89153 -17.3177 2.13249 35
-1.87232 -17.2943 2.16243 36
-1.86745 -17.2341 2.19209 37
-1.85881 -17.2799 2.22271 35
nan nan nan nan
-1.91522 -17.8664 2.29271 37
-1.97449 -17.8443 2.32438 37
-1.88913 -17.7072 2.35207 30
-1.93729 -17.7316 2.3842 1
-1.93338 -17.8821 2.41853 33
-1.94624 -17.9553 2.45178 29
-1.93229 -17.9861 2.48386 23
-1.91541 -17.1977 2.49381 32
-1.84241 -17.2099 2.52333 34
-2.01016 -18.1911 2.58581 33
-1.82869 -17.1643 2.58203 33
-1.84976 -17.1046 2.6404 36
-1.83595 -17.0583 2.69841 36
-1.81754 -16.9725 2.75433 28
-1.81123 -16.9956 2.81489 29
-2.03381 -18.3658 3.10761 30
-2.00463 -18.5374 3.44349 40
-1.9486 -18.0673 3.90154 6
nan nan nan nan
nan nan nan nan
-1.53552 -14.0302 5.10279 38
nan nan nan nan
nan nan nan nan
-0.200096 -1.7633 1.41616 3
-0.225197 -1.95872 1.48031 5
-0.257128 -2.31473 1.48896 1
-0.292381 -2.52867 1.52367 3
-0.34363 -2.97084 1.51311 49
nan nan nan nan
nan nan nan nan
-0.485743 -4.24903 1.50282 3
-0.469221 -4.19506 1.54625 43
-0.482555 -4.22588 1.56517 31
-0.498558 -4.37182 1.57683 9
-0.506809 -4.46854 1.5917 6
-0.514189 -4.60441 1.59526 5
-0.527839 -4.76955 1.59724 6
-0.568151 -4.95708 1.59859 4
-0.798322 -7.03949 1.45207 4
nan nan nan nan
-0.76343 -6.88137 1.51404 3
nan nan nan nan
nan nan nan nan
nan nan nan nan
-0.760449 -6.85268 1.61105 3
nan nan nan nan
-0.77366 -6.82886 1.66037 2
-0.752705 -6.79212 1.68593 1
-0.75778 -6.83771 1.70771 2
-0.775893 -6.84683 1.73139 3
-0.778903 -6.86259 1.75479 3
-0.786583 -6.88728 1.76597 3
-0.765912 -6.92015 1.77677 1
-0.785276 -6.91831 1.78906 8
-0.772204 -6.9653 1.79965 13
-0.78657 -6.92884 1.81297 13
-0.868466 -7.66447 1.80605 10
-0.899868 -7.97823 1.81187 46
-1.87491 -16.521 1.63497 9
nan nan nan nan
nan nan nan nan
-1.86434 -16.4131 1.72373 13
nan nan nan nan
-1.92541 -17.0309 1.77282 13
-2.13315 -18.8846 1.78077 27
-1.94643 -17.2961 1.82979 30
-2.19942 -19.3761 1.84302 30
-2.17107 -19.2587 1.87762 23
-2.17794 -19.4544 1.9103 25
-2.19554 -19.5933 1.94401 30
-2.14329 -19.2922 1.97855 38
-1.96678 -17.0982 2.01204 29
-1.91273 -17.2503 2.04161 23
-1.9691 -17.2489 2.07244 35
-1.96352 -17.3199 2.10598 26
-1.95421 -17.3308 2.13327 42
-1.93601 -17.3175 2.16334 31
-1.92704 -17.2225 2.19266 20
-1.93129 -17.3826 2.22474 30
-1.95512 -16.9921 2.25034 32
nan nan nan nan
-2.0277 -17.7578 2.32359 33
-1.95367 -17.7254 2.35321 25
-1.98741 -17.6204 2.3826 1
-1.97915 -17.7262 2.41571 29
-2.02395 -18.0825 2.4558 17
nan nan nan nan
-1.97488 -17.1859 2.49429 37
-1.90085 -17.1884 2.52351 36
-1.95429 -17.1363 2.55281 36
-1.8837 -17.1131 2.58114 33
-1.90559 -17.0632 2.63972 30
-1.88776 -16.9823 2.69619 31
-1.87022 -16.9064 2.7523 9
-1.86074 -16.8998 2.81123 28
-2.09795 -18.3586 3.10828 28
nan nan nan nan
-2.00899 -18.0356 3.8996 32
nan nan nan nan
nan nan nan nan
-1.58463 -14.0246 5.1033 20
nan nan nan nan
-0.365696 -3.01779 0.661067 3
-0.206219 -1.76262 1.41622 3
-0.232005 -1.95794 1.48038 5
-0.264615 -2.30899 1.49014 1
-0.299458 -2.51302 1.52657 3
-0.353391 -2.96475 1.51403 68
nan nan nan nan
nan nan nan nan
-0.500544 -4.24733 1.50298 3
-0.483836 -4.19342 1.54641 39
-0.499032 -4.23901 1.56378 31
-0.513791 -4.37007 1.57699 9
-0.522957 -4.47171 1.5914 6
-0.531378 -4.6125 1.59454 5
-0.545599 -4.77759 1.59656 6
-0.58892 -4.98478 1.59632 4
-0.826907 -7.07134 1.4496 1
nan nan nan nan
-0.782857 -6.83905 1.51712 3
nan nan nan nan
-0.787967 -6.73635 1.57064 3
nan nan nan nan
-0.780346 -6.81528 1.6133 3
nan nan nan nan
-0.800945 -6.85589 1.65911 2
-0.773545 -6.76466 1.68734 4
-0.781624 -6.83503 1.70796 3
-0.799192 -6.83913 1.73183 3
-0.802836 -6.85983 1.75504 3
-0.810603 -6.88451 1.76622 3
-0.790047 -6.91744 1.77703 3
-0.809406 -6.91553 1.78931 9
-0.795927 -6.95761 1.80005 13
-0.811894 -6.93599 1.81295 12
-0.902141 -7.72097 1.80479 11
-0.92712 -7.97008 1.81228 41
nan nan nan nan
nan nan nan nan
-1.87482 -16.3914 1.69547 33
-1.92334 -16.4214 1.72407 12
-1.88935 -16.466 1.75185 14
-2.00332 -17.183 1.77129 33
nan nan nan nan
nan nan nan nan
-2.01191 -17.1882 1.86173 38
-1.99684 -17.1751 1.89183 36
-1.97832 -17.1321 1.92202 32
nan nan nan nan
-2.21916 -19.3592 1.97916 12
-2.01821 -17.0217 2.01262 25
-1.97065 -17.2236 2.04219 36
-1.99659 -16.9639 2.07194 30
-2.02454 -17.3179 2.10663 35
-2.0118 -17.2991 2.13371 34
-1.99415 -17.2908 2.16378 28
-1.98829 -17.2256 2.1934 37
-1.98568 -17.3211 2.22467 36
-2.01384 -16.9802 2.25088 28
-1.94185 -16.9932 2.27999 31
-2.00792 -17.0555 2.31164 20
-1.96414 -17.2664 2.3449 32
-2.0206 -17.37 2.37798 3
-1.99007 -17.2772 2.40603 30
-1.99292 -17.261 2.436 30
-1.97182 -17.2223 2.46502 38
-2.03546 -17.1838 2.49506 36
-1.95746 -17.1519 2.52323 35
-2.01353 -17.1244 2.55327 42
-1.94006 -17.0766 2.58075 43
-1.96688 -17.0713 2.6409 28
-1.94534 -16.9607 2.69619 30
-2.09898 -18.3886 2.81909 10
-2.06689 -18.1883 2.87396 24
-2.16265 -18.356 3.10924 38
nan nan nan nan
-2.07145 -18.0235 3.89973 30
nan nan nan nan
nan nan nan nan
nan nan nan nan
nan nan nan nan
-0.372761 -2.98937 0.673413 3
-0.212339 -1.76191 1.41629 3
-0.238218 -1.95235 1.48175 5
-0.272646 -2.30807 1.49022 1
-0.308793 -2.51686 1.52573 3
-0.363711 -2.96352 1.51414 42
nan nan nan nan
nan nan nan nan
-0.516536 -4.25543 1.50196 3
-0.499033 -4.19666 1.54602 46
-0.513801 -4.23726 1.56393 30
-0.531394 -4.38804 1.57521 9
-0.538539 -4.46987 1.59156 6
-0.54804 -4.61558 1.59426 5
-0.562835 -4.78063 1.59631 6
-0.605693 -4.97777 1.59691 4
nan nan nan nan
nan nan nan nan
-0.807282 -6.84125 1.51701 3
-0.836318 -6.87966 1.53729 8
-0.81145 -6.73358 1.57089 3
-0.803935 -6.82135 1.58911 6
-0.806458 -6.83236 1.6124 3
-0.821698 -6.82695 1.63673 14
-0.820079 -6.8134 1.66136 4
-0.803578 -6.81649 1.68502 39
-0.804283 -6.82235 1.70864 3
-0.823637 -6.84127 1.73188 3
-0.826759 -6.857 1.75528 3
-0.835215 -6.88661 1.76629 1
-0.814759 -6.91962 1.77711 3
-0.834725 -6.9226 1.78925 11
-0.821958 -6.96969 1.79986 22
-0.837278 -6.94304 1.81292 12
-0.938007 -7.79223 1.80315 14
-0.956108 -7.97673 1.81233 37
-1.98117 -16.4331 1.63782 10
-2.04246 -16.8544 1.66105 8
-1.93669 -16.4244 1.69531 30
-1.98722 -16.4692 1.72373 12
-1.96385 -16.6033 1.75025 17
-2.06802 -17.2156 1.77137 33
-2.07445 -17.2808 1.8008 32
-2.02081 -16.8948 1.83491 30
-2.07667 -17.2208 1.86202 30
-2.06152 -17.2077 1.89219 38
-2.04283 -17.1648 1.92245 34
-2.04032 -17.1299 1.95268 20
-2.01871 -17.0871 1.98261 34
-2.07881 -17.0245 2.01323 28
-2.00092 -16.9634 2.04223 28
-2.05458 -16.9469 2.07251 33
-2.02939 -16.8491 2.10448 29
nan nan nan nan
nan nan nan nan
-2.0484 -17.2186 2.19402 30
-2.01674 -17.0658 2.2221 25
-2.09549 -17.1566 2.25418 31
-1.99532 -16.9367 2.27979 35
-2.06925 -17.0633 2.31252 32
-2.02382 -17.2545 2.34542 34
-2.08123 -17.3628 2.37861 3
-2.03858 -17.1709 2.40433 41
-2.04193 -17.1596 2.43425 42
-2.02842 -17.1855 2.46484 59
-2.21023 -18.1192 2.52275 35
-2.14623 -18.2419 2.55722 31
-2.1904 -18.0846 2.58506 42
-2.04501 -17.4568 2.59451 31
-2.14265 -18.0418 2.67815 37
nan nan nan nan
-2.05006 -17.4187 2.77693 38
-2.12924 -18.1711 2.87414 24
-2.22315 -18.3186 3.10811 36
nan nan nan nan
-2.15785 -18.2136 3.92122 25
nan nan nan nan
nan nan nan nan
nan nan nan nan
nan nan nan nan
-0.383123 -2.98811 0.67352 3
-0.218457 -1.76119 1.41635 3
-0.245004 -1.95153 1.48182 5
-0.280673 -2.30713 1.4903 1
-0.31755 -2.51579 1.52582 3
-0.374026 -2.96225 1.51424 40
nan nan nan nan
nan nan nan nan
-0.528894 -4.23392 1.50445 4
-0.513653 -4.19491 1.54617 42
-0.529182 -4.24039 1.56357 29
-0.546683 -4.38617 1.57536 9
-0.554727 -4.47292 1.59126 6
-0.564125 -4.61365 1.59443 5
-0.58191 -4.79843 1.59478 6
-0.62489 -4.99048 1.59587 4
-0.836335 -6.74389 1.47541 4
-0.821703 -6.71231 1.50151 3
-0.826293 -6.7988 1.52009 4
nan nan nan nan
-0.834923 -6.73072 1.57113 3
nan nan nan nan
-0.830883 -6.83448 1.61237 1
-0.840605 -6.78442 1.63911 4
-0.844449 -6.81547 1.66135 2
-0.82795 -6.81861 1.68503 3
-0.831097 -6.84431 1.70781 4
-0.84872 -6.84828 1.73173 3
-0.851287 -6.85904 1.75535 3
-0.860471 -6.89358 1.7662 3
-0.839494 -6.9217 1.7772 3
-0.860104 -6.92957 1.78919 12
-0.848083 -6.98167 1.79968 13
-0.863947 -6.95993 1.81263 11
-0.97009 -7.8286 1.8024 22
-0.985154 -7.98328 1.81238 31
-2.10311 -16.947 1.62681 25
-2.0994 -16.8323 1.66195 17
nan nan nan nan
-2.05208 -16.5217 1.72331 13
-2.089 -17.1472 1.74245 35
nan nan nan nan
-2.06553 -16.7128 1.80799 29
-2.09014 -16.9721 1.83468 30
-2.07456 -16.7123 1.86674 23
-2.07809 -16.8481 1.89508 30
nan nan nan nan
-2.09643 -17.0929 1.95338 36
nan nan nan nan
-2.11519 -16.8336 2.01373 36
-2.05409 -16.9067 2.04272 31
-2.10815 -16.8949 2.07293 36
-2.09618 -16.9064 2.10547 30
-2.09026 -16.9422 2.13234 33
-2.07894 -16.9836 2.16228 36
-2.08658 -17.0327 2.19265 32
-2.07327 -17.0338 2.2224 30
-2.15598 -17.1542 2.25486 30
-2.08029 -17.143 2.2839 33
-2.13128 -17.0758 2.3135 30
-2.08344 -17.2423 2.34594 34
-2.14183 -17.3554 2.37923 3
-2.11795 -17.3224 2.40867 33
-2.11887 -17.2913 2.43836 30
-2.1156 -17.4016 2.47148 30
-2.28653 -18.2155 2.52639 30
-2.20931 -18.2293 2.55772 31
-2.28936 -18.3645 2.59499 26
-2.09937 -17.395 2.59328 31
-2.24448 -18.3516 2.69071 16
nan nan nan nan
-2.18834 -18.0511 2.80606 10
nan nan nan nan
-2.1839 -17.4836 3.05874 37
-2.1376 -17.4782 3.36578 17
-2.21246 -18.1318 3.91406 20
nan nan nan nan
nan nan nan nan
-1.73845 -14.0602 5.11665 32
nan nan nan nan
-0.393481 -2.98681 0.673626 1
-0.224572 -1.76044 1.41641 1
-0.251786 -1.95069 1.48189 5
-0.288083 -2.30132 1.49148 1
-0.324429 -2.50007 1.52872 3
-0.384337 -2.96095 1.51435 32
nan nan nan nan
nan nan nan nan
-0.543642 -4.23207 1.5046 4
-0.528267 -4.19311 1.54632 39
-0.543955 -4.23854 1.56372 29
-0.562594 -4.38919 1.57503 9
-0.570943 -4.47591 1.59097 6
-0.583319 -4.63638 1.59239 5
-0.599874 -4.80627 1.59411 6
-0.642916 -4.99322 1.59564 4
-0.860469 -6.7459 1.47526 1
nan nan nan nan
-0.851856 -6.81074 1.51927 2
nan nan nan nan
-0.859017 -6.73273 1.57105 1
nan nan nan nan
-0.855333 -6.83651 1.61232 1
nan nan nan nan
-0.868212 -6.8125 1.6616 1
-0.848002 -6.78596 1.68667 8
-0.854342 -6.83642 1.70827 1
-0.872601 -6.84529 1.73197 3
-0.876472 -6.86595 1.75523 3
-0.885785 -6.90045 1.7661 3
-0.864255 -6.9237 1.77728 3
-0.886177 -6.94141 1.78898 11
-0.872433 -6.97867 1.79993 13
-0.892634 -6.99159 1.81192 9
-1.00181 -7.85988 1.80179 22
-1.013 -7.9798 1.81266 23
nan nan nan nan
-2.12885 -16.5968 1.66718 17
nan nan nan nan
-2.11415 -16.5492 1.72331 35
nan nan nan nan
-2.09742 -16.4866 1.7822 25
-2.17862 -17.137 1.80354 33
-2.08404 -16.4488 1.8404 29
-2.1335 -16.7099 1.8673 35
-2.11169 -16.6424 1.89695 29
-2.11313 -16.7582 1.9255 23
-2.12536 -16.8424 1.95469 52
-2.10743 -16.8295 1.98411 27
-2.17905 -16.8658 2.01435 43
-2.11308 -16.8994 2.04333 25
-2.17029 -16.9123 2.07363 31
-2.15834 -16.9238 2.10623 33
-2.15064 -16.9447 2.13302 33
-2.13508 -16.9514 2.16265 30
-2.13851 -16.9657 2.19259 42
nan nan nan nan
nan nan nan nan
-2.13455 -17.091 2.28378 36
-2.23285 -17.3955 2.32007 34
-2.16953 -17.4433 2.35072 11
nan nan nan nan
-2.22337 -17.672 2.41768 32
-2.32385 -18.4293 2.46792 28
-2.28761 -18.2818 2.49608 23
-2.25174 -17.4441 2.50504 31
-2.16543 -17.3585 2.53204 36
-2.23217 -17.4096 2.56504 38
-2.15332 -17.333 2.59205 29
-2.238 -17.7834 2.67031 14
-2.20445 -17.5886 2.72471 37
-2.1377 -17.1313 2.76602 31
nan nan nan nan
-2.23923 -17.4313 3.05666 36
-2.19804 -17.4656 3.36602 12
-2.26591 -18.0449 3.90637 17
nan nan nan nan
nan nan nan nan
nan nan nan nan
nan nan nan nan
nan nan nan nan
-0.230684 -1.75967 1.41647 4
-0.258566 -1.94982 1.48196 5
nan nan nan nan
-0.332278 -2.48915 1.53069 3
-0.394644 -2.95961 1.51445 17
nan nan nan nan
nan nan nan nan
-0.555781 -4.21047 1.50709 5
-0.546717 -4.22084 1.54321 47
-0.558068 -4.2317 1.56438 29
-0.579945 -4.39699 1.57422 8
-0.586539 -4.47391 1.59112 6
-0.599476 -4.63433 1.59255 5
-0.617899 -4.81405 1.59343 6
-0.662271 -5.00579 1.5946 3
-0.883333 -6.73794 1.47589 1
nan nan nan nan
-0.877513 -6.82259 1.51845 1
nan nan nan nan
-0.887026 -6.76435 1.56905 1
nan nan nan nan
-0.878527 -6.82855 1.61285 3
nan nan nan nan
-0.891317 -6.80449 1.66209 3
-0.872302 -6.78793 1.68668 5
-0.878181 -6.83341 1.70851 1
-0.896472 -6.84222 1.73222 3
-0.900417 -6.86286 1.75548 3
-0.90985 -6.89733 1.76634 3
-0.888402 -6.92065 1.77753 3
-0.911038 -6.94324 1.78907 22
-0.896773 -6.97559 1.80018 19
-0.922778 -7.02297 1.81122 8
-1.03764 -7.92078 1.80041 29
-1.04213 -7.98613 1.81271 11
-2.17581 -16.585 1.63572 39
-2.19458 -16.6487 1.66657 41
-2.13273 -16.5917 1.69355 28
-2.17514 -16.5665 1.72348 42
-2.13114 -16.5323 1.75278 32
-2.16105 -16.5036 1.78248 38
-2.1517 -16.4649 1.81189 36
-2.14336 -16.4563 1.84084 36
-2.14887 -16.3752 1.87055 30
-2.14841 -16.4713 1.89858 31
-2.16195 -16.6764 1.92644 36
-2.18283 -16.825 1.95532 36
-2.18087 -16.9361 1.98458 33
-2.2461 -16.8973 2.01501 30
-2.17779 -16.9366 2.04404 25
-2.23191 -16.9244 2.07432 25
-2.23299 -17.0351 2.10756 23
-2.23889 -17.1602 2.13534 30
-2.21801 -17.1273 2.16499 23
nan nan nan nan
nan nan nan nan
nan nan nan nan
nan nan nan nan
-2.29814 -17.4223 2.32132 37
-2.22978 -17.4307 2.35124 31
-2.02614 -15.5258 2.34093 1
-2.01424 -15.5721 2.36906 8
-2.02404 -15.6155 2.39758 36
-2.24601 -17.4557 2.4746 17
-2.35754 -17.7276 2.51416 28
-2.23301 -17.4053 2.53433 30
-2.34383 -17.7881 2.57817 23
nan nan nan nan
-2.20384 -17.0322 2.64297 17
-2.25242 -17.4768 2.72105 30
-2.19497 -17.1039 2.76574 14
nan nan nan nan
-2.29881 -17.4134 3.05668 13
-2.25969 -17.4627 3.36702 12
nan nan nan nan
-3.18528 -24.8125 5.28631 25
nan nan nan nan
nan nan nan nan
nan nan nan nan
nan nan nan nan
-0.236794 -1.75888 1.41654 3
-0.264026 -1.93936 1.48464 5
nan nan nan nan
-0.339619 -2.47826 1.53265 3
-0.404945 -2.95823 1.51456 10
-0.752453 -5.55129 1.19042 3
nan nan nan nan
-0.571782 -4.21837 1.50607 6
-0.559448 -4.20414 1.54499 41
-0.574152 -4.2396 1.5635 25
-0.597256 -4.40975 1.57292 8
-0.603456 -4.48173 1.59036 6
-0.616283 -4.63717 1.59228 5
-0.637952 -4.83657 1.59148 6
nan nan nan nan
-0.905486 -6.72495 1.47691 1
-0.894493 -6.72317 1.50074 3
-0.894075 -6.76512 1.52258 1
-0.918796 -6.76853 1.545 2
-0.915931 -6.80079 1.56674 2
-0.901614 -6.82933 1.58888 3
-0.899049 -6.80071 1.61452 5
-0.916845 -6.81488 1.6377 4
-0.919034 -6.83104 1.66083 3
-0.901211 -6.82447 1.68506 4
-0.902666 -6.83527 1.70854 3
-0.920332 -6.83906 1.73246 3
-0.925017 -6.86464 1.75554 3
-0.935247 -6.90403 1.76625 3
-0.914502 -6.93238 1.77729 3
-0.9386 -6.96479 1.78855 13
-0.923731 -6.99225 1.79984 24
-0.953931 -7.06925 1.81011 8
-1.0666 -7.92703 1.80043 30
nan nan nan nan
-2.23099 -16.5575 1.63675 57
nan nan nan nan
-2.18799 -16.5644 1.69451 32
-2.22958 -16.5341 1.72448 55
-2.19012 -16.5347 1.75322 39
-2.26452 -16.8379 1.77849 30
-2.21246 -16.4821 1.81219 40
nan nan nan nan
-2.19131 -16.2586 1.87201 23
nan nan nan nan
-2.21947 -16.6638 1.92705 14
nan nan nan nan
-2.24127 -16.9383 1.98517 29
nan nan nan nan
nan nan nan nan
-2.35132 -17.3625 2.0768 37
-2.33712 -17.3592 2.11021 37
-2.31471 -17.2712 2.13687 29
-2.27514 -17.0997 2.16541 37
-2.28332 -17.1486 2.19602 31
-2.28045 -17.2292 2.22705 20
-1.94691 -14.2571 2.21414 8
-1.88791 -14.3 2.23913 28
nan nan nan nan
-2.04241 -15.5344 2.31401 28
-2.07768 -15.4988 2.34104 3
-2.06991 -15.5749 2.36985 36
-2.07194 -15.5588 2.39687 41
-2.3509 -17.7797 2.48421 36
-2.12909 -15.61 2.45375 31
-2.12738 -16.1339 2.49626 33
-2.19229 -16.2 2.52757 38
-2.13315 -16.2423 2.55658 32
-2.18753 -16.4548 2.62211 35
-2.26089 -17.0726 2.70534 26
-2.04986 -15.5411 2.69681 20
-2.15525 -16.4063 2.79312 20
nan nan nan nan
-2.31215 -17.3904 3.36261 17
-2.31154 -17.4222 3.84347 35
-3.24216 -24.5751 5.25721 30
nan nan nan nan
nan nan nan nan
nan nan nan nan
nan nan nan nan
-0.240289 -1.7393 1.42299 1
-0.270767 -1.93845 1.4847 5
nan nan nan nan
-0.346212 -2.46248 1.53555 3
-0.415924 -2.96171 1.51384 9
-0.769059 -5.52906 1.1935 3
nan nan nan nan
-0.586475 -4.21637 1.50622 8
-0.574768 -4.20711 1.54459 38
-0.58961 -4.24252 1.56313 23
-0.612621 -4.40766 1.57308 8
-0.619754 -4.48454 1.59006 6
-0.633792 -4.64488 1.59156 5
-0.656825 -4.84915 1.59038 6
-0.926098 -6.64974 1.45934 3
-0.931652 -6.74153 1.47559 3
-0.918602 -6.72497 1.5006 3
-0.92439 -6.8114 1.51929 2
nan nan nan nan
-0.938272 -6.78768 1.56761 2
nan nan nan nan
-0.932197 -6.8668 1.61078 1
nan nan nan nan
-0.938073 -6.79318 1.66282 2
-0.921645 -6.79655 1.68646 3
-0.927174 -6.83704 1.70856 2
-0.945544 -6.84571 1.7323 3
-0.950325 -6.87128 1.75542 3
-0.96139 -6.91558 1.76598 3
-0.940023 -6.93906 1.77721 3
-0.966324 -6.98623 1.78803 13
-0.948793 -6.99394 1.79994 19
-0.987467 -7.13025 1.80859 6
-1.09152 -7.90346 1.80122 17
nan nan nan nan
nan nan nan nan
-2.213 -15.9299 1.68195 35
-2.2377 -16.4972 1.6962 29
-2.29755 -16.6005 1.72381 34
-2.24848 -16.5319 1.75372 33
-2.32599 -16.8497 1.77882 30
-2.31972 -16.8359 1.80857 28
-2.32954 -16.9611 1.83688 36
nan nan nan nan
-2.15905 -15.6981 1.90453 32
nan nan nan nan
-2.11765 -15.4768 1.96023 20
nan nan nan nan
-2.16529 -15.46 2.01511 34
-2.10256 -15.494 2.0417 20
-2.40778 -17.3244 2.07728 46
-2.40111 -17.3757 2.11097 28
-2.15619 -15.673 2.1251 25
-2.14927 -15.7343 2.15306 25
-2.1147 -15.4712 2.17776 25
-2.33181 -17.1568 2.22682 16
nan nan nan nan
-1.93715 -14.2884 2.23955 28
-1.99254 -14.3309 2.26605 33
-2.09997 -15.5519 2.31506 14
-2.14063 -15.5559 2.343 3
-2.1236 -15.5626 2.37028 26
-2.11947 -15.5019 2.39616 31
-2.12336 -15.6418 2.42702 28
-2.23406 -15.9638 2.46476 30
-2.18638 -16.1462 2.49744 37
-2.25022 -16.2022 2.52846 42
-2.18784 -16.2199 2.55664 32
-2.25647 -16.5312 2.62586 36
-2.21531 -16.2923 2.67408 37
-2.10345 -15.5288 2.69713 30
-2.20987 -16.3789 2.79275 20
nan nan nan nan
-2.39313 -17.5304 3.37484 6
-2.3731 -17.4189 3.84461 29
-3.30342 -24.3817 5.23396 37
nan nan nan nan
nan nan nan nan
nan nan nan nan
nan nan nan nan
-0.245659 -1.73378 1.42465 1
-0.277503 -1.93751 1.48477 6
nan nan nan nan
-0.354352 -2.46134 1.53563 3
-0.426232 -2.96026 1.51395 8
-0.789007 -5.53128 1.19297 3
-0.598167 -4.20829 1.45481 3
-0.601161 -4.21432 1.50637 11
-0.590116 -4.21002 1.5442 46
-0.605095 -4.24538 1.56277 13
-0.628605 -4.41547 1.57225 8
-0.63538 -4.48237 1.59022 6
-0.649977 -4.64265 1.59172 5
-0.677172 -4.87151 1.58844 6
-0.949975 -6.65143 1.45916 3
-0.955147 -6.73826 1.47582 3
-0.943427 -6.73162 1.50009 3
-0.947441 -6.80321 1.51988 2
nan nan nan nan
-0.957733 -6.75474 1.56976 1
nan nan nan nan
-0.971348 -6.97228 1.60477 3
nan nan nan nan
-0.960358 -6.77999 1.66355 8
-0.946033 -6.79825 1.68647 3
-0.951706 -6.83872 1.70859 3
-0.970115 -6.84733 1.73235 3
-0.974988 -6.87288 1.75548 3
-0.984096 -6.9023 1.76656 3
-0.962845 -6.92584 1.77777 4
-0.982242 -6.92345 1.79011 16
-0.973186 -6.9906 1.80019 19
-1.02438 -7.22097 1.80625 5
-1.11769 -7.88971 1.80175 14
-2.25794 -16.0081 1.62146 6
-2.26294 -15.9526 1.65095 35
-2.26927 -15.9271 1.68241 34
nan nan nan nan
nan nan nan nan
-2.33591 -16.7368 1.75109 14
-2.43985 -17.2528 1.7739 38
-2.38824 -16.897 1.80836 29
-2.40335 -17.0568 1.83646 36
-2.40655 -16.9607 1.86738 37
-2.40247 -17.0272 1.89668 39
-2.1953 -15.6477 1.93275 13
-2.19879 -15.6624 1.96024 28
-2.16927 -15.5605 1.98773 33
-2.21101 -15.4334 2.01558 42
-2.15663 -15.4866 2.04224 33
-2.22003 -15.5735 2.07038 34
nan nan nan nan
-2.37302 -16.814 2.13463 35
-2.20001 -15.697 2.15333 14
-2.19025 -15.6172 2.18005 30
-2.38131 -17.0742 2.22645 16
-2.21276 -15.4415 2.23293 14
-1.98633 -14.2766 2.23997 30
-2.03973 -14.304 2.26618 33
nan nan nan nan
-2.37036 -16.7907 2.37078 3
-2.32427 -16.5996 2.39556 17
-2.33765 -16.6625 2.42643 27
-2.20973 -15.862 2.43376 36
-2.31957 -16.204 2.47244 35
-2.24206 -16.1335 2.49785 37
-2.30748 -16.1991 2.52918 29
-2.24995 -16.2517 2.55857 32
nan nan nan nan
-2.35241 -16.8584 2.69837 52
-2.15767 -15.5214 2.69768 25
nan nan nan nan
nan nan nan nan
-2.46612 -17.6058 3.38204 35
-2.43328 -17.4055 3.8447 34
-3.37157 -24.2471 5.21851 32
nan nan nan nan
nan nan nan nan
nan nan nan nan
nan nan nan nan
-0.251678 -1.73294 1.42471 1
-0.283529 -1.93178 1.48614 8
nan nan nan nan
-0.362488 -2.46017 1.53571 3
-0.434389 -2.94413 1.5165 8
-0.808979 -5.53342 1.19244 3
-0.609966 -4.18658 1.45754 3
-0.61584 -4.21222 1.50651 14
-0.605491 -4.21287 1.54381 43
-0.62133 -4.2531 1.56188 12
-0.644647 -4.42323 1.57143 8
-0.653144 -4.49492 1.589 6
-0.667574 -4.65023 1.591 5
-0.69839 -4.89873 1.58607 8
-0.972435 -6.64316 1.4598 6
-0.978631 -6.7349 1.47606 10
-0.970442 -6.75298 1.49847 3
-0.971153 -6.79988 1.52012 9
nan nan nan nan
-0.983431 -6.76619 1.56904 1
nan nan nan nan
-1.00274 -7.01828 1.60217 3
-0.999539 -6.88402 1.63415 5
-0.984714 -6.78156 1.66354 8
-0.976805 -6.84436 1.68439 3
-0.978386 -6.85515 1.70797 3
-0.996858 -6.86369 1.7318 3
-1.00039 -6.87934 1.75536 3
-1.01034 -6.91367 1.76629 3
-0.989118 -6.93729 1.77753 5
-1.01072 -6.94966 1.78943 22
-1.00111 -7.0119 1.79971 19
-1.04187 -7.17303 1.80771 5
-1.1538 -7.94513 1.8005 30
-2.31306 -15.9952 1.62213 6
-2.31858 -15.9446 1.6515 50
-2.32627 -15.929 1.68276 37
-2.27146 -15.9121 1.70794 36
-2.50199 -17.1925 1.71472 31
-2.40919 -16.8325 1.7501 32
-2.52565 -17.4425 1.77183 8
-2.46724 -17.0271 1.80735 35
nan nan nan nan
-2.49235 -17.1353 1.8665 23
-2.46045 -17.0088 1.89733 13
nan nan nan nan
-2.43888 -16.9413 1.95727 16
-2.24341 -15.6914 1.98814 29
-2.26144 -15.421 2.01609 32
-2.21066 -15.4789 2.04278 36
-2.27293 -15.5558 2.07087 31
-2.25998 -15.5525 2.10084 28
-2.28703 -15.8061 2.12736 29
-2.04126 -14.2045 2.1396 28
-2.04239 -14.2041 2.16459 36
-2.19489 -15.3485 2.20448 20
-2.10024 -14.3161 2.21674 20
-2.04814 -14.3537 2.24186 33
-2.08893 -14.2918 2.26659 25
-2.03266 -14.2995 2.29118 23
-2.32941 -16.0946 2.35626 3
-2.3552 -16.4033 2.39167 28
-2.34023 -16.2684 2.41717 32
-2.33024 -16.3093 2.44672 39
-2.35667 -16.0825 2.46967 33
-2.29767 -16.1206 2.49826 33
-2.3597 -16.1613 2.52878 31
-2.30528 -16.2339 2.5588 34
-2.32993 -16.2232 2.61597 39
-2.22698 -15.5643 2.64576 29
-2.21327 -15.5236 2.69866 39
-2.21257 -15.5768 2.75583 20
-2.56787 -17.5572 3.06993 13
-2.54322 -17.7056 3.39118 39
nan nan nan nan
-2.49925 -17.5314 4.32844 30
nan nan nan nan
nan nan nan nan
nan nan nan nan
-0.385012 -2.51794 0.882178 4
-0.25208 -1.69459 1.43756 1
-0.290243 -1.9308 1.48621 10
-0.33033 -2.2563 1.5007 3
-0.371048 -2.45891 1.5358 3
-0.440973 -2.91823 1.52069 5
-0.824587 -5.50613 1.19624 3
-0.704995 -4.72388 1.38673 3
-0.631984 -4.21988 1.50549 29
-0.620166 -4.21075 1.54395 39
-0.636886 -4.25584 1.56152 11
-0.660058 -4.42098 1.57158 8
-0.671737 -4.51233 1.58733 5
-0.686685 -4.6676 1.5894 5
-0.718357 -4.91599 1.58454 8
-1.0118 -6.74818 1.45111 9
-1.0021 -6.73147 1.47629 10
nan nan nan nan
-0.995579 -6.80141 1.52 1
nan nan nan nan
-1.01436 -6.81209 1.56609 1
nan nan nan nan
-1.01124 -6.9061 1.60866 3
-1.02281 -6.87556 1.63465 4
-1.02158 -6.867 1.6593 4
-1.00139 -6.84587 1.6844 1
-1.00302 -6.85665 1.708 3
-1.02153 -6.86512 1.73184 3
-1.02586 -6.8857 1.75524 3
-1.03519 -6.91505 1.76635 3
-1.01404 -6.93875 1.77761 6
-1.03495 -6.9461 1.78967 13
-1.02629 -7.01332 1.79981 13
-1.08521 -7.29296 1.80457 5
-1.17858 -7.92129 1.80128 12
-2.36592 -15.9673 1.62316 6
-2.3742 -15.9364 1.65205 36
-2.37888 -15.901 1.68371 25
-2.32552 -15.8942 1.70868 29
-2.58705 -17.3518 1.71249 30
-2.54857 -17.3731 1.74242 35
-2.6202 -17.6611 1.76942 29
-2.55084 -17.1816 1.80606 25
nan nan nan nan
-2.56318 -17.2007 1.8665 8
-2.55132 -17.2128 1.8966 13
-2.26505 -15.3649 1.93502 28
-2.26642 -15.3647 1.96208 30
-2.25314 -15.3767 1.98897 23
-2.312 -15.3731 2.01661 29
-2.24948 -15.3672 2.04305 23
-2.30354 -15.3895 2.07072 29
-2.27376 -15.2725 2.09965 29
-2.29231 -15.4617 2.12525 13
-2.28183 -15.4933 2.1526 33
-2.09926 -14.2463 2.16565 20
-2.09013 -14.2624 2.1908 29
-2.14825 -14.2787 2.21681 29
-2.09462 -14.3217 2.24195 28
-2.14547 -14.329 2.26791 28
-2.08618 -14.3171 2.29217 31
-2.12227 -14.3112 2.31772 42
-2.1088 -14.3328 2.34322 44
-2.10803 -14.3019 2.36772 66
-2.10429 -14.3724 2.39464 47
-2.36296 -15.7228 2.46003 29
nan nan nan nan
nan nan nan nan
nan nan nan nan
-2.3822 -16.1853 2.61541 30
-2.3728 -16.1792 2.6721 34
-2.26963 -15.5306 2.69987 31
-2.26696 -15.5689 2.75637 40
-2.43111 -16.2253 2.98993 13
-2.6058 -17.7014 3.39218 29
-2.60335 -17.7175 3.88091 17
-3.52671 -24.1246 5.20715 59
nan nan nan nan
nan nan nan nan
nan nan nan nan
-0.400102 -2.55722 0.863919 4
-0.260836 -1.71246 1.43122 1
-0.296953 -1.9298 1.48628 10
-0.336714 -2.24551 1.50297 3
-0.37589 -2.43335 1.54057 3
-0.448881 -2.90207 1.52324 4
-0.843009 -5.49836 1.19716 9
nan nan nan nan
-0.647435 -4.22258 1.50505 34
-0.634834 -4.20858 1.5441 43
-0.653981 -4.26836 1.56012 11
-0.677705 -4.43342 1.57028 6
-0.690459 -4.52967 1.58565 5
-0.705181 -4.67997 1.58824 5
-0.736971 -4.92333 1.58387 8
-1.0323 -6.72493 1.45296 1
-1.02631 -6.73288 1.47613 1
-1.02123 -6.77074 1.49709 4
-1.01706 -6.78312 1.52129 1
-1.0442 -6.80087 1.54281 4
-1.04262 -6.83813 1.56441 3
-1.02572 -6.84719 1.58796 19
-1.02788 -6.85318 1.61173 3
-1.04678 -6.87197 1.63489 3
-1.04627 -6.86835 1.65928 3
-1.02971 -6.87198 1.68325 1
-1.03138 -6.88276 1.70695 3
-1.04622 -6.86647 1.73188 3
-1.04987 -6.88209 1.75548 3
-1.06006 -6.91634 1.76642 3
-1.03823 -6.93518 1.77785 8
-1.05993 -6.94739 1.78976 24
-1.04927 -6.99982 1.80034 12
-1.12115 -7.35832 1.80292 5
nan nan nan nan
-2.42312 -15.9688 1.62347 3
-2.42526 -15.8984 1.65325 28
-2.43207 -15.8778 1.68455 31
-2.38393 -15.9057 1.70886 20
-2.45198 -16.0627 1.73456 12
-2.61662 -17.4135 1.74228 12
-2.73505 -18.0028 1.76537 37
-2.19939 -14.4638 1.83775 12
-2.1871 -14.4256 1.86354 33
nan nan nan nan
-2.62638 -17.3026 1.89658 14
-2.58085 -17.0922 1.92787 21
-2.59146 -17.1513 1.95784 20
-2.30828 -15.3787 1.98949 38
nan nan nan nan
-2.30162 -15.3494 2.04355 31
-2.36102 -15.4061 2.07135 25
-2.14022 -14.0387 2.09239 20
-2.13683 -14.0744 2.11483 35
nan nan nan nan
-2.16466 -14.3427 2.16733 25
-2.33321 -15.5404 2.20829 43
-2.43589 -15.8177 2.24054 30
-2.36582 -15.7926 2.26719 27
-2.19094 -14.2917 2.26785 31
-2.13541 -14.3047 2.29257 10
-2.39218 -15.7517 2.35017 1
-2.39737 -15.907 2.38139 47
-2.4224 -16.044 2.41298 39
-2.42476 -16.1641 2.44433 37
-2.43757 -15.8429 2.46432 25
-2.2528 -15.0513 2.46688 25
nan nan nan nan
-2.33237 -15.6391 2.54003 36
-2.43348 -16.1422 2.61465 28
-2.34976 -15.6422 2.65073 13
-2.32312 -15.5176 2.70018 12
-2.32206 -15.5658 2.75714 33
-2.48021 -16.1673 2.98748 13
nan nan nan nan
-2.65046 -17.6099 3.87107 12
-3.61325 -24.1267 5.20994 97
nan nan nan nan
nan nan nan nan
nan nan nan nan
-0.406075 -2.53782 0.872159 4
-0.261641 -1.6788 1.44247 3
-0.30366 -1.92877 1.48634 12
-0.344523 -2.24434 1.50304 3
-0.385116 -2.43689 1.53971 3
-0.456682 -2.88588 1.52578 4
-0.862917 -5.50031 1.19662 4
-0.651384 -4.16533 1.45991 3
-0.662143 -4.22032 1.50519 38
-0.650255 -4.21127 1.5437 43
-0.668851 -4.26607 1.56026 11
-0.695446 -4.4458 1.56898 6
-0.707775 -4.53709 1.58489 5
-0.723771 -4.69226 1.58708 5
-0.758678 -4.95029 1.5815 6
-1.05574 -6.72131 1.45319 1
-1.05285 -6.74898 1.47481 1
-1.04406 -6.76223 1.49769 3
-1.03994 -6.77462 1.52188 2
-1.06481 -6.77749 1.54439 4
-1.06261 -6.80981 1.56624 3
-1.04504 -6.81399 1.59 19
-1.04569 -6.8101 1.61423 2
-1.06767 -6.84855 1.63619 98
-1.06561 -6.83506 1.66101 1
-1.05064 -6.84861 1.68441 1
-1.05462 -6.8742 1.7074 3
-1.07093 -6.86772 1.73192 3
-1.07618 -6.8932 1.75517 3
-1.08495 -6.91755 1.76649 3
-1.06394 -6.9414 1.77776 9
-1.08416 -6.94366 1.78999 13
-1.079 -7.0307 1.79957 11
-1.15526 -7.40869 1.80169 11
-1.15006 -7.37454 1.8156 3
-1.15863 -7.45453 1.82665 1
-2.48149 -15.8948 1.65369 10
-2.2451 -14.3234 1.71617 17
-2.4432 -15.922 1.70895 36
-2.47556 -15.8467 1.73858 37
-2.86385 -18.6149 1.72472 22
-2.85616 -18.3686 1.76103 12
-2.78512 -17.8995 1.7988 29
-2.23742 -14.4179 1.86404 11
-2.2366 -14.3221 1.89032 30
-2.23147 -14.3636 1.9152 29
nan nan nan nan
-2.32771 -15.0521 1.96391 30
nan nan nan nan
-2.29106 -14.5416 2.0169 33
nan nan nan nan
-2.27311 -14.4938 2.06785 28
-2.37338 -15.2118 2.10042 32
-2.38023 -15.3168 2.12528 32
-2.18149 -14.128 2.14054 34
-2.20707 -14.2856 2.16725 20
-2.41027 -15.6804 2.21079 12
-2.28207 -14.4806 2.22106 29
-2.18624 -14.2524 2.24202 28
-2.24236 -14.2939 2.26852 30
-2.21025 -14.4603 2.29637 32
-2.24595 -14.4491 2.32209 3
nan nan nan nan
-2.46158 -15.9268 2.41075 35
-2.45915 -16.0123 2.44096 31
-2.33997 -14.8616 2.43645 37
-2.28416 -14.905 2.46312 38
-2.3541 -15.0198 2.49391 25
-2.40054 -15.7197 2.54363 17
-2.40748 -15.6003 2.59494 32
-2.38991 -15.54 2.64737 31
-2.38788 -15.5785 2.70383 20
-2.52343 -16.5203 2.80446 34
-2.65038 -16.8833 3.03229 25
nan nan nan nan
-2.77183 -17.9887 3.91297 33
-3.70286 -24.1482 5.21534 65
nan nan nan nan
nan nan nan nan
-3.76842 -24.9992 9.21374 32
-0.418563 -2.55897 0.862054 4
nan nan nan nan
-0.309589 -1.92296 1.48771 12
nan nan nan nan
-0.392042 -2.42585 1.54167 3
-0.461241 -2.8502 1.5316 3
-0.849984 -5.297 1.22639 4
-0.66589 -4.16306 1.46005 3
-0.676842 -4.218 1.50534 40
-0.665703 -4.2139 1.5433 39
-0.685294 -4.27355 1.55938 11
-0.710936 -4.44337 1.56913 6
-0.725936 -4.54936 1.58367 5
-0.741678 -4.69956 1.58636 5
-1.07609 -6.8522 1.41816 4
-1.11622 -6.94888 1.43438 3
-1.08108 -6.77483 1.47272 1
-1.06218 -6.72409 1.50051 6
-1.06122 -6.75619 1.52316 8
-1.08212 -6.73435 1.5473 4
-1.07456 -6.73217 1.57124 4
-1.0626 -6.77087 1.59264 8
-1.06477 -6.77684 1.61616 2
-1.08213 -6.78563 1.63961 3
-1.08629 -6.81159 1.66223 1
-1.07529 -6.84985 1.68441 3
-1.08015 -6.88035 1.70721 3
-1.09645 -6.87382 1.73176 3
-1.101 -6.89435 1.75523 3
-1.11066 -6.9236 1.76638 3
-1.0897 -6.94753 1.77768 5
-1.10996 -6.94971 1.78993 16
-1.10197 -7.01703 1.8001 10
-1.17718 -7.37995 1.80262 3
-1.18128 -7.40504 1.81497 3
-1.18777 -7.47019 1.82643 1
nan nan nan nan
-2.29268 -14.3007 1.71695 14
nan nan nan nan
-2.28998 -14.3323 1.76429 13
-2.50065 -15.8886 1.76602 37
-2.2833 -14.3492 1.81455 38
nan nan nan nan
-2.28694 -14.405 1.86457 21
-2.27868 -14.2649 1.89119 38
-2.27609 -14.3211 1.9159 39
nan nan nan nan
-2.40212 -15.1821 1.96407 39
nan nan nan nan
-2.341 -14.5285 2.01739 35
-2.26919 -14.4438 2.04221 34
-2.31972 -14.4611 2.06823 27
-2.30907 -14.4677 2.0962 29
-2.29077 -14.4097 2.1186 32
-2.23079 -14.1203 2.14102 17
-2.25692 -14.2778 2.16774 29
-2.39575 -15.2324 2.20548 29
-2.28813 -14.1961 2.21737 31
-2.23985 -14.2693 2.24292 33
-2.28354 -14.2316 2.26799 30
nan nan nan nan
-2.48169 -15.6063 2.3484 3
nan nan nan nan
-2.50545 -15.844 2.40939 34
nan nan nan nan
-2.3863 -14.8188 2.43594 42
-2.32536 -14.8278 2.46149 65
-2.4089 -15.0263 2.49491 27
-2.41144 -15.4298 2.53446 38
-2.45415 -15.5425 2.59359 42
-2.49706 -15.8671 2.66186 41
-2.44691 -15.5997 2.7057 37
-2.58111 -16.5114 2.80503 25
-2.70697 -16.8592 3.03196 25
-2.52986 -16.0186 3.26355 12
-2.83237 -17.9641 3.91201 9
-3.79036 -24.1545 5.21877 63
nan nan nan nan
nan nan nan nan
-3.85601 -24.9856 9.2146 32
-0.426679 -2.55303 0.864178 4
nan nan nan nan
-0.31469 -1.91236 1.49038 11
nan nan nan nan
-0.400482 -2.42449 1.54175 3
-0.468451 -2.82904 1.53496 3
-0.853235 -5.20126 1.24027 6
-0.680387 -4.16073 1.46019 3
-0.695556 -4.24014 1.50256 42
-0.681176 -4.21648 1.5429 43
-0.701797 -4.28096 1.55849 10
-0.728815 -4.45561 1.56783 6
-0.74339 -4.55664 1.58291 5
-0.761235 -4.71663 1.58476 5
-0.783656 -4.88588 1.58691 4
-1.1582 -7.03801 1.42695 5
-1.1079 -6.79071 1.4714 1
-1.10791 -6.85818 1.49038 1
-1.0943 -6.81155 1.51917 6
-1.11441 -6.76955 1.54487 6
-1.10284 -6.75794 1.56956 40
-1.07115 -6.67352 1.59858 138
-1.08919 -6.77802 1.61611 56
-1.10815 -6.78144 1.63986 3
-1.11165 -6.81763 1.66197 1
-1.09997 -6.851 1.68441 1
-1.10414 -6.87656 1.70744 3
-1.12442 -6.87944 1.73162 3
-1.12585 -6.89541 1.75529 3
-1.13642 -6.92955 1.76628 4
-1.1163 -6.9585 1.77743 4
-1.13742 -6.96553 1.78955 27
-1.13121 -7.04275 1.79948 10
-1.1957 -7.3314 1.80408 1
-1.21291 -7.42019 1.81474 1
-1.21382 -7.46601 1.82668 3
nan nan nan nan
nan nan nan nan
-2.29805 -14.3104 1.7395 40
-2.33756 -14.3094 1.76503 40
-2.30703 -14.3349 1.78965 41
-2.33416 -14.3461 1.81497 40
