# .PCD v0.7 - Point Cloud Data file format
VERSION 0.7
FIELDS x y z intensity
SIZE 4 4 4 4
TYPE F F F F
COUNT 1 1 1 1
WIDTH 1695
HEIGHT 1
VIEWPOINT 0 0 0 1 0 0 0
POINTS 1695
DATA ascii
-8.5933 -9.52158 1.93672 13
-8.58594 -9.52835 1.95905 13
-8.57852 -9.53507 1.98138 13
-8.57938 -9.53424 2.0037 12
-8.57354 -9.54605 2.02604 12
-8.61234 -9.51099 2.04832 12
-8.57331 -9.54618 2.0707 11
-8.60074 -9.51464 2.09296 11
-8.58651 -9.5138 2.11744 8
-8.5873 -9.52628 2.13762 6
-8.57802 -9.53426 2.15996 9
-8.56863 -9.52205 2.18207 12
-8.57094 -9.53957 2.2046 6
-8.61622 -9.51168 2.22705 10
-8.57197 -9.54445 2.24934 13
-8.60085 -9.51117 2.27152 13
-8.56985 -9.55194 2.29412 13
-8.59704 -9.53349 2.31654 13
-8.58253 -9.53903 2.33877 13
-8.58463 -9.53624 2.36109 10
-8.57837 -9.5476 2.38358 12
-8.62012 -9.51574 2.40603 13
-8.57563 -9.54829 2.42826 13
-8.60768 -9.51848 2.45056 13
-8.56642 -9.54788 2.47276 13
-8.58035 -9.53302 2.51739 13
-8.58078 -9.54334 2.56247 13
-8.57596 -9.54507 2.60714 13
-8.57633 -9.55534 2.65232 12
-8.61794 -9.51928 2.80927 13
-8.60083 -9.54677 3.03465 13
-4.33314 -4.80986 2.69726 74
-8.59633 -9.55234 3.72496 36
-6.60279 -7.35148 3.7556 10
-5.09724 -5.62369 3.69069 19
-4.23387 -4.71148 3.82029 64
-1.50467 -1.65849 1.02673 11
nan nan nan nan
-1.67581 -1.8483 1.34695 6
-2.52764 -2.80469 1.17653 5
-5.2504 -5.78806 0.540813 3
-5.9706 -6.57255 0.563334 3
-6.66899 -7.35083 0.587375 3
-8.58998 -9.47353 0.37914 3
-8.10929 -8.9291 0.620715 3
-8.5646 -9.47151 0.651848 3
-8.67014 -9.5395 0.706965 3
-8.66844 -9.55802 0.785055 3
-8.61868 -9.50448 0.861807 10
-4.36403 -4.82713 1.44879 40
-4.38449 -4.858 1.46852 72
-4.37978 -4.81779 1.49396 44
-4.38278 -4.83101 1.51583 69
-4.34294 -4.802 1.54205 41
-4.40342 -4.87711 1.55921 11
-8.64655 -9.51156 1.17472 13
-8.61013 -9.48789 1.22223 13
-8.58212 -9.50331 1.26743 5
-4.40467 -4.87667 1.64963 5
-4.39363 -4.84125 1.6742 4
-4.40463 -4.85313 1.69619 5
-4.39021 -4.86079 1.71918 5
-4.40427 -4.87609 1.74111 5
-4.38713 -4.83225 1.76556 4
-8.62166 -9.49341 1.57942 12
-8.70363 -9.56845 1.59828 14
-8.63132 -9.55394 1.62261 13
-8.66595 -9.53684 1.64471 11
-8.63885 -9.55534 1.6673 13
-8.65979 -9.53714 1.68969 11
-8.65607 -9.5346 1.71223 13
-8.6557 -9.54244 1.73454 9
-8.66693 -9.53965 1.75686 13
-8.67311 -9.53464 1.78153 13
-8.63249 -9.55163 1.80199 14
-8.66188 -9.5321 1.8243 13
-8.64295 -9.55627 1.84668 13
-8.6553 -9.53193 1.86919 14
-8.65137 -9.52916 1.89164 13
-8.64743 -9.53306 1.91405 15
-8.65338 -9.52114 1.93646 13
-8.64602 -9.52795 1.95887 13
-8.63861 -9.53471 1.98127 13
-8.63946 -9.53387 2.00366 13
-8.637 -9.54944 2.02608 13
-8.67916 -9.51782 2.04845 13
-8.64011 -9.55328 2.07093 20
-8.66755 -9.52153 2.09327 12
-8.65665 -9.52447 2.11789 20
-8.65747 -9.53696 2.13816 16
-8.64482 -9.5413 2.16053 20
-8.63875 -9.53283 2.18279 14
-8.63774 -9.54665 2.20535 17
-8.67969 -9.5148 2.22779 20
-8.63876 -9.55154 2.25026 20
-8.66766 -9.51805 2.27253 21
-8.62995 -9.55163 2.29498 23
-8.66052 -9.53671 2.3176 13
-8.64599 -9.54234 2.3399 22
-8.64138 -9.53212 2.36203 13
-8.63849 -9.54723 2.38473 19
-8.67687 -9.51143 2.40708 13
-8.63574 -9.54794 2.42955 13
-8.66778 -9.51792 2.45191 12
-8.62651 -9.54757 2.47418 12
-8.64379 -9.53631 2.51915 14
-8.6476 -9.55033 2.56461 12
-8.6394 -9.54839 2.60922 13
-8.63645 -9.55497 2.6543 13
-8.67804 -9.51862 2.81173 12
-8.6576 -9.54249 3.03742 13
-4.33323 -4.77628 2.69456 70
-8.66632 -9.56259 3.73224 36
-6.62519 -7.32467 3.7547 12
-5.12021 -5.6094 3.69175 19
-4.23426 -4.67879 3.81334 50
-1.51348 -1.65665 1.02469 10
nan nan nan nan
-1.70179 -1.86386 1.33921 6
-2.53409 -2.79227 1.17759 5
-5.28043 -5.78066 0.538014 3
-5.9901 -6.54809 0.564106 3
-6.69787 -7.33123 0.586632 3
-8.64297 -9.46554 0.375305 3
-8.17051 -8.93379 0.615531 3
-8.62432 -9.47103 0.647582 3
-8.72347 -9.53125 0.703908 4
-8.71846 -9.54614 0.782653 4
-8.67524 -9.50013 0.858651 11
-4.34392 -4.77138 1.45346 40
-4.39133 -4.83164 1.46972 73
-4.36962 -4.77307 1.49708 46
-4.34242 -4.75312 1.52217 68
-4.34957 -4.77578 1.5431 38
-8.71525 -9.58 1.12543 8
-8.70997 -9.51449 1.17177 17
-8.67345 -9.49097 1.21944 13
-8.65214 -9.51396 1.26423 4
-4.4082 -4.84651 1.65069 5
-4.39028 -4.80377 1.67569 5
-4.40805 -4.82299 1.69711 5
-4.39369 -4.83068 1.72003 6
-4.41452 -4.85332 1.74149 5
-4.39722 -4.80955 1.7659 4
-8.68844 -9.50016 1.57772 17
-8.75383 -9.55646 1.59745 12
-8.69151 -9.55334 1.62138 13
-8.72616 -9.53604 1.64355 11
-8.69906 -9.55471 1.66621 12
-8.71998 -9.53639 1.68867 12
-8.71626 -9.53387 1.71127 12
-8.7159 -9.54171 1.73366 13
-8.72715 -9.53886 1.75605 12
-8.73334 -9.53381 1.78079 13
-8.69605 -9.55472 1.80124 14
-8.72547 -9.535 1.82362 13
-8.70992 -9.56301 1.84602 14
-8.71886 -9.53489 1.86867 12
-8.71493 -9.53213 1.8912 13
-8.71436 -9.53975 1.91365 12
-8.71693 -9.52408 1.93618 13
-8.70958 -9.53094 1.95866 13
-8.70217 -9.53774 1.98114 13
-8.70303 -9.53689 2.00361 13
-8.69722 -9.5488 2.0261 14
-8.73261 -9.50957 2.04851 13
-8.69696 -9.54895 2.07107 11
-8.73114 -9.5244 2.09354 14
-8.71685 -9.5237 2.1182 29
-8.7177 -9.53621 2.13853 13
-8.71178 -9.548 2.16109 32
-8.70569 -9.53953 2.18345 17
-8.7047 -9.55339 2.20609 31
-8.75005 -9.52494 2.2287 12
-8.70571 -9.55829 2.25118 12
-8.73462 -9.52457 2.27353 13
-8.69689 -9.55842 2.29607 13
-8.72413 -9.53961 2.31865 13
-8.70958 -9.54532 2.34104 14
-8.70832 -9.53879 2.36338 13
-8.70545 -9.55394 2.38617 13
-8.74383 -9.51789 2.40861 16
-8.70267 -9.55468 2.43116 12
-8.73812 -9.52811 2.45378 14
-8.69343 -9.55434 2.47597 14
-8.71073 -9.54295 2.52111 14
-8.71457 -9.55697 2.56674 14
-8.70634 -9.55508 2.61153 13
-8.70003 -9.55797 2.65653 12
-8.74162 -9.52133 2.81451 13
-8.72116 -9.54528 3.04098 13
-4.3432 -4.75375 2.69347 74
-8.73314 -9.5688 3.73885 36
-6.65081 -7.30143 3.75466 11
-5.14314 -5.59502 3.69282 19
-4.25066 -4.66391 3.81332 41
-1.5192 -1.65139 1.02468 10
nan nan nan nan
-1.71479 -1.86504 1.33662 6
-2.54048 -2.77985 1.17866 5
-5.30383 -5.76587 0.53706 3
-6.01284 -6.5272 0.564072 3
-6.72335 -7.30787 0.586594 3
-8.72287 -9.4865 0.366411 3
-8.20157 -8.90528 0.615486 3
-8.65725 -9.44093 0.647535 3
-8.79371 -9.54103 0.69834 3
-8.80219 -9.57068 0.775534 3
-8.74537 -9.51017 0.853714 8
-4.36052 -4.75622 1.45344 50
-4.3913 -4.79793 1.47175 75
-4.3761 -4.74681 1.49823 46
-4.34546 -4.72328 1.52365 72
-4.35608 -4.74956 1.54415 37
-8.76544 -9.56795 1.12369 8
-8.76674 -9.50975 1.16946 13
-8.74366 -9.50107 1.21603 12
nan nan nan nan
-4.41832 -4.82375 1.6512 4
-4.39686 -4.77741 1.67643 5
-4.41469 -4.79657 1.69779 5
-4.40038 -4.80428 1.72066 6
-4.41454 -4.81948 1.74247 5
-4.4072 -4.78683 1.76624 4
-8.74183 -9.49185 1.57668 11
-8.82777 -9.56995 1.59551 20
-8.75516 -9.55613 1.62 12
-8.79325 -9.54229 1.6421 11
-8.76612 -9.56114 1.66485 17
-8.78366 -9.53901 1.68752 13
-8.78331 -9.54018 1.71009 12
-8.78298 -9.54804 1.73256 10
-8.79086 -9.54144 1.75513 13
-8.80383 -9.5437 1.77979 13
-8.7665 -9.56486 1.80033 14
-8.78919 -9.53758 1.82294 12
-8.77704 -9.5694 1.84537 13
-8.78932 -9.54488 1.86804 15
-8.782 -9.53845 1.89072 11
-8.78144 -9.54608 1.91326 15
-8.78739 -9.53404 1.93585 17
-8.78003 -9.54095 1.95842 13
-8.77262 -9.54781 1.981 14
-8.7701 -9.54327 2.00357 13
-8.76768 -9.55891 2.02615 13
-8.80647 -9.5231 2.04867 13
-8.76741 -9.55908 2.07131 13
-8.79824 -9.53061 2.09384 13
-8.7907 -9.53733 2.11868 13
-8.78819 -9.54618 2.13906 13
-8.77889 -9.55434 2.16166 13
-8.77277 -9.54589 2.1841 13
-8.77181 -9.55977 2.20683 13
-8.81379 -9.52738 2.22944 13
-8.77281 -9.56469 2.25209 12
-8.80173 -9.53075 2.27453 13
-8.7606 -9.56116 2.29705 13
-8.79125 -9.54586 2.31983 12
-8.77668 -9.55165 2.3423 13
-8.77203 -9.54144 2.36459 12
-8.77256 -9.5603 2.3876 13
-8.81095 -9.52399 2.41013 12
-8.76976 -9.56107 2.43277 13
-8.80863 -9.53792 2.45565 13
-8.76388 -9.56445 2.47794 13
-8.78121 -9.55293 2.52327 13
-8.78508 -9.56693 2.56909 13
-8.78017 -9.56878 2.61431 13
-8.77386 -9.5717 2.65952 14
-8.82565 -9.54569 2.81917 13
-8.78147 -9.54408 3.04414 12
-4.33624 -4.71293 2.68969 72
-8.79341 -9.56737 3.74413 37
-6.66968 -7.27084 3.75287 12
-5.17267 -5.58771 3.69606 22
-4.24752 -4.62773 3.80498 44
-1.53423 -1.65618 1.01859 10
-1.63127 -1.77 1.21064 4
-1.72454 -1.86261 1.33532 6
-2.5435 -2.76382 1.1808 5
-5.32718 -5.75099 0.536105 3
-6.03216 -6.50262 0.56484 3
-6.74537 -7.28079 0.587264 3
-8.79291 -9.49611 0.35941 3
-8.21901 -8.8621 0.617722 3
-8.69345 -9.41437 0.646957 3
-8.8709 -9.55773 0.691764 3
-8.86928 -9.57648 0.770768 4
nan nan nan nan
-4.36692 -4.73001 1.4547 41
-4.39786 -4.77161 1.47295 74
-4.37905 -4.71691 1.49977 48
-4.34834 -4.69347 1.52512 64
-4.35568 -4.71604 1.54592 35
-8.84272 -9.58499 1.11923 8
-8.85075 -9.53399 1.16457 17
-8.81743 -9.51446 1.21232 14
-4.3894 -4.76069 1.63222 4
-4.42156 -4.79365 1.65226 3
-4.4101 -4.75838 1.67665 5
-4.41781 -4.76649 1.69871 5
-4.40356 -4.77422 1.72151 5
-4.42454 -4.79671 1.74285 5
-4.41028 -4.75676 1.76695 4
-8.81226 -9.5016 1.5748 17
-8.8815 -9.56107 1.59452 13
-8.82573 -9.56593 1.61832 13
-8.86388 -9.55185 1.64051 17
-8.83673 -9.57089 1.66336 13
-8.86105 -9.55598 1.68588 16
-8.85392 -9.54981 1.70879 12
-8.85359 -9.55769 1.73136 13
-8.86489 -9.5547 1.75393 13
-8.8677 -9.54589 1.77896 12
-8.83373 -9.57095 1.7995 12
-8.86323 -9.55083 1.82205 12
-8.84431 -9.57543 1.84471 13
-8.85656 -9.55082 1.86747 11
-8.85601 -9.55176 1.89014 13
-8.85207 -9.55573 1.91282 14
-8.85462 -9.53997 1.93553 14
-8.84726 -9.54693 1.9582 12
-8.83984 -9.55383 1.98086 14
-8.83732 -9.5493 2.00351 13
-8.83153 -9.5613 2.02618 12
-8.87372 -9.52891 2.04879 13
-8.83464 -9.56515 2.07152 12
-8.86549 -9.53646 2.09413 13
-8.85455 -9.53957 2.11903 12
-8.85545 -9.55211 2.13953 13
-8.84615 -9.56033 2.16222 13
-8.84001 -9.55189 2.18474 13
-8.83907 -9.56579 2.20756 13
-8.88107 -9.53314 2.23026 13
-8.83668 -9.56706 2.2529 12
-8.86899 -9.53657 2.27552 13
-8.83122 -9.57093 2.29825 12
-8.85852 -9.55176 2.321 17
-8.84733 -9.5613 2.34369 14
-8.84605 -9.55475 2.36621 15
-8.84322 -9.56997 2.38919 14
-8.88502 -9.53706 2.41196 17
-8.84378 -9.57444 2.43471 13
-8.87591 -9.54369 2.45735 12
-8.8345 -9.57418 2.47991 12
-8.85186 -9.56252 2.52543 14
-8.85237 -9.57285 2.57123 12
-8.84744 -9.57474 2.61662 13
-8.84111 -9.57769 2.662 12
-8.88955 -9.54767 2.82194 11
-8.85204 -9.55355 3.0485 14
-4.3358 -4.67951 2.68699 75
-8.85041 -9.562 3.74873 36
-6.68843 -7.24021 3.75108 12
-5.19222 -5.56955 3.69602 17
-4.25069 -4.59869 3.79941 38
-1.5493 -1.66088 1.01251 10
-1.6374 -1.76433 1.21063 4
-1.73759 -1.86367 1.33273 6
-2.55309 -2.75496 1.18079 5
-5.34044 -5.72524 0.53792 3
-6.05137 -6.47798 0.565606 3
-6.77067 -7.25726 0.587222 3
-8.85635 -9.49808 0.353669 3
-8.27695 -8.86246 0.6131 3
-8.72618 -9.38403 0.646905 3
-8.9449 -9.57038 0.685686 4
-8.94332 -9.58922 0.765056 4
nan nan nan nan
-4.35284 -4.68194 1.45851 46
-4.3941 -4.73436 1.47538 79
-4.37845 -4.68341 1.50171 51
-4.34766 -4.66006 1.52697 63
-4.37209 -4.70083 1.54589 37
-8.90664 -9.58699 1.11612 13
-8.91118 -9.53225 1.16193 13
-8.88799 -9.5238 1.2089 13
-4.39238 -4.73073 1.63334 5
-4.42465 -4.76358 1.65331 3
-4.41304 -4.72837 1.67764 5
-4.42077 -4.73645 1.69962 5
-4.40658 -4.74419 1.72235 6
-4.42423 -4.76296 1.74382 5
-4.41662 -4.73039 1.76747 4
-8.88287 -9.51099 1.57292 13
-8.94211 -9.55923 1.59321 13
-8.88966 -9.56804 1.61693 13
-8.93128 -9.55738 1.63906 13
-8.90751 -9.58025 1.66187 14
-8.92502 -9.55789 1.68472 13
-8.92469 -9.55907 1.70749 14
-8.92438 -9.56695 1.73015 14
-8.92889 -9.55658 1.75301 13
-8.93852 -9.55505 1.77795 14
-8.90451 -9.58035 1.79858 14
-8.93406 -9.56001 1.82123 13
-8.91513 -9.58477 1.84398 14
-8.93077 -9.56372 1.86678 14
-8.9234 -9.55735 1.88965 14
-8.92288 -9.56501 1.91238 14
-8.92541 -9.54919 1.93519 14
-8.91805 -9.5562 1.95795 14
-8.91063 -9.56316 1.98071 15
-8.91151 -9.56228 2.00346 16
-8.90913 -9.578 2.02624 16
-8.94796 -9.54166 2.04894 17
-8.90882 -9.5782 2.07178 17
-8.94139 -9.5477 2.09449 17
-8.92876 -9.55244 2.11951 13
-8.92286 -9.55768 2.14 15
-8.91356 -9.56596 2.16277 14
-8.91081 -9.5612 2.18546 16
-8.90989 -9.57513 2.20837 16
-8.95191 -9.54219 2.23116 17
-8.90747 -9.57642 2.25391 15
-8.94149 -9.54413 2.27661 16
-8.90201 -9.58032 2.29944 15
-8.92594 -9.5573 2.32216 16
-8.91474 -9.56691 2.34494 14
-8.91686 -9.56401 2.36769 13
-8.91064 -9.57561 2.39061 13
-8.94904 -9.53878 2.41331 13
-8.90778 -9.57644 2.43615 13
-8.94501 -9.54755 2.45903 13
-8.90189 -9.57987 2.48169 13
-8.91587 -9.56444 2.52718 13
-8.9164 -9.57477 2.57313 13
-8.91144 -9.57669 2.61868 13
-8.90851 -9.58332 2.66448 12
-8.95016 -9.54568 2.8244 14
-8.92619 -9.56627 3.05326 13
-4.33858 -4.64978 2.68482 76
-8.92438 -9.57447 3.75667 36
-6.70704 -7.20954 3.74929 12
-5.21937 -5.55752 3.69817 20
-4.26353 -4.58023 3.798 40
-1.5613 -1.66217 1.00844 10
-1.64674 -1.7621 1.20903 4
-1.74736 -1.86114 1.33143 6
-2.55931 -2.7425 1.18185 6
-5.36032 -5.70663 0.537885 3
-6.07387 -6.45688 0.565567 3
-6.79714 -7.23246 0.587175 3
-8.92331 -9.50334 0.347292 3
nan nan nan nan
-8.75881 -9.35357 0.646849 3
-9.00546 -9.56813 0.681612 3
-9.00733 -9.59066 0.760755 4
-4.34096 -4.62226 1.44073 6
-4.36913 -4.66674 1.45849 48
-4.40376 -4.71174 1.47618 79
-4.38108 -4.6536 1.50325 48
-4.34339 -4.62307 1.52919 66
-4.35775 -4.65281 1.54908 32
-8.96386 -9.58138 1.11369 12
-8.9888 -9.54836 1.15768 17
-8.96215 -9.5364 1.20518 13
-4.38838 -4.69351 1.63504 5
-4.4344 -4.74083 1.65383 5
-4.40899 -4.69111 1.67913 5
-4.3757 -4.65549 1.70383 5
-4.39579 -4.69962 1.72407 6
-4.43398 -4.74021 1.7442 5
-4.42625 -4.70767 1.76781 4
-8.95707 -9.52363 1.57088 13
-9.01994 -9.57527 1.5911 23
-8.96396 -9.58076 1.6151 14
-9.00225 -9.5662 1.63747 11
-8.97847 -9.58925 1.66037 17
-8.99596 -9.56677 1.68332 13
-8.99222 -9.5643 1.7063 12
-8.9936 -9.57063 1.72905 12
-9.00328 -9.56907 1.7518 13
-9.00608 -9.56019 1.77703 13
-8.96863 -9.58206 1.79782 13
-8.9982 -9.56155 1.82054 13
-8.97929 -9.58644 1.84337 13
-8.9949 -9.56529 1.86625 13
-8.99094 -9.56259 1.88916 14
-8.98867 -9.56504 1.91201 13
-8.99295 -9.55439 1.93487 12
-8.98216 -9.55781 1.95773 13
-8.97475 -9.56481 1.98058 13
-8.97563 -9.56393 2.0034 13
-8.96986 -9.57603 2.02625 14
-9.01209 -9.54309 2.04904 13
-8.97637 -9.58355 2.07198 11
-9.00719 -9.54761 2.09474 13
-8.99632 -9.55762 2.11989 12
-8.99727 -9.57019 2.14057 13
-8.98453 -9.57489 2.16339 12
-8.98177 -9.57013 2.18617 13
-8.98087 -9.58408 2.20918 13
-9.02292 -9.55087 2.23206 13
-8.97843 -9.58541 2.2549 12
-9.01072 -9.54765 2.2776 13
-8.96956 -9.58568 2.30052 12
-8.99693 -9.56613 2.32345 13
-8.9823 -9.57217 2.34619 12
-8.981 -9.5656 2.36889 13
-8.97821 -9.58089 2.39204 12
-9.0166 -9.54381 2.41482 12
-8.97533 -9.58175 2.43775 17
-9.01083 -9.5474 2.46054 13
-8.96602 -9.58156 2.48328 17
-8.98 -9.56602 2.52893 13
-8.98056 -9.57635 2.57504 14
-8.97899 -9.58196 2.62098 11
-8.97265 -9.58496 2.6667 12
-9.02281 -9.55269 2.82779 13
-8.98688 -9.56407 3.05641 14
-4.348 -4.62734 2.68372 72
-8.98836 -9.5757 3.7626 36
-6.72889 -7.18242 3.74837 12
-5.24985 -5.54892 3.7014 20
-4.28944 -4.57577 3.80213 47
-1.56704 -1.65675 1.00843 32
-1.6626 -1.76673 1.20426 4
-1.76046 -1.86207 1.32883 5
-2.56213 -2.72648 1.184 6
-5.38012 -5.68795 0.537849 3
-6.0929 -6.43212 0.566328 3
-6.82101 -7.20994 0.587131 3
-8.99382 -9.51186 0.34028 3
nan nan nan nan
-8.82204 -9.35556 0.642039 3
-9.06954 -9.56919 0.677033 3
-9.06803 -9.58816 0.756922 4
-4.34677 -4.59625 1.44204 8
-4.38194 -4.64786 1.45888 48
-4.35864 -4.63108 1.48352 79
-4.38013 -4.62021 1.50518 48
-4.35263 -4.60066 1.52991 67
-4.38421 -4.64847 1.54798 37
-9.028 -9.58274 1.11058 12
-9.04948 -9.54594 1.15503 13
-9.01249 -9.52322 1.20359 12
-4.39103 -4.66365 1.63616 5
-4.4372 -4.71081 1.65488 4
-4.41845 -4.66845 1.6796 4
-4.42966 -4.68011 1.70121 5
-4.39159 -4.66245 1.72535 6
-4.43677 -4.71018 1.74497 5
-9.03025 -9.54157 1.52293 3
-9.03146 -9.53587 1.56882 14
-9.0636 -9.55462 1.59057 8
-9.02131 -9.57489 1.614 14
-9.05963 -9.56013 1.63643 11
-9.04273 -9.59059 1.65913 13
-9.0602 -9.568 1.68216 13
-9.05989 -9.56917 1.7051 13
-9.05618 -9.57346 1.72804 13
-9.06755 -9.57026 1.75087 13
-9.07379 -9.56498 1.7761 14
-9.03287 -9.58345 1.79705 12
-9.05902 -9.55912 1.81992 14
-9.04357 -9.58777 1.84276 12
-9.05571 -9.56289 1.86577 13
-9.05174 -9.5602 1.88874 12
-9.04782 -9.56425 1.91167 13
-9.05375 -9.55199 1.93459 14
-9.04983 -9.56272 1.9575 13
-9.03898 -9.56614 1.98044 16
-9.03987 -9.56524 2.00334 13
-9.03755 -9.58103 2.02628 12
-9.07979 -9.54782 2.04915 14
-9.04064 -9.5849 2.07216 13
-9.06812 -9.5519 2.095 13
-9.06058 -9.55882 2.12023 13
-9.06156 -9.5714 2.14098 13
-9.04881 -9.57617 2.16387 13
-9.04261 -9.56778 2.18666 13
-9.04173 -9.58175 2.20975 13
-9.08377 -9.54829 2.23269 14
-9.03928 -9.5831 2.25561 13
-9.06821 -9.54829 2.27838 15
-9.03382 -9.58705 2.30148 12
-9.06121 -9.56732 2.32448 17
-9.04657 -9.57344 2.34731 17
-9.04869 -9.5705 2.37023 13
-9.04249 -9.58219 2.39331 11
-9.08431 -9.54848 2.41633 14
-9.03959 -9.58307 2.43918 12
-9.07176 -9.55164 2.46205 13
-9.0337 -9.58656 2.48505 14
-9.04768 -9.5709 2.53087 13
-9.04826 -9.58123 2.57716 13
-9.04325 -9.58323 2.62304 13
-9.04034 -9.58989 2.66917 14
-9.08031 -9.55321 2.83024 13
-9.05451 -9.56881 3.06035 12
-4.34708 -4.59405 2.68101 67
-9.06268 -9.5874 3.77052 36
-6.75401 -7.15882 3.74833 12
-5.27309 -5.54033 3.70355 17
-4.2692 -4.52226 3.78686 41
-1.57276 -1.65132 1.00842 6
nan nan nan nan
-1.77025 -1.85944 1.32753 5
-2.57159 -2.71756 1.18398 6
-5.39648 -5.66564 0.538734 3
-6.11524 -6.41088 0.566284 3
-6.84265 -7.18257 0.587791 3
-9.0474 -9.50203 0.336425 3
-9.06844 -9.50876 0.496384 3
-8.86826 -9.33919 0.639866 3
-9.12686 -9.56272 0.673454 3
-9.13226 -9.58896 0.752614 4
-4.35245 -4.57026 1.44334 8
-4.37409 -4.60728 1.46184 52
-4.3576 -4.59779 1.48554 76
-4.37556 -4.58327 1.5075 46
-4.35831 -4.57463 1.53101 63
-4.3729 -4.60424 1.55081 34
-9.09912 -9.59101 1.10678 12
-9.11714 -9.55044 1.15174 13
-9.07661 -9.52426 1.20078 14
-4.39695 -4.63745 1.637 5
-4.43641 -4.67721 1.6562 3
-4.40715 -4.62409 1.6816 3
-4.3736 -4.58871 1.70613 3
-4.38719 -4.62537 1.72663 5
-4.43941 -4.68019 1.74574 6
-9.10828 -9.55704 1.52048 3
-9.08536 -9.52601 1.56776 13
-9.11759 -9.54463 1.58956 8
-9.07874 -9.56874 1.6129 13
-9.11708 -9.55378 1.63538 10
-9.10711 -9.5916 1.65789 14
-9.12456 -9.5689 1.68099 12
-9.11735 -9.56284 1.70424 13
-9.1171 -9.57076 1.72714 11
-9.12849 -9.5675 1.75004 12
-9.13128 -9.55856 1.77543 12
-9.09379 -9.58088 1.79636 14
-9.12339 -9.56 1.81923 12
-9.11141 -9.5924 1.84209 17
-9.12352 -9.56743 1.86518 12
-9.11954 -9.56475 1.88824 17
-9.11907 -9.57245 1.91122 15
-9.12155 -9.5565 1.93427 14
-9.11764 -9.56728 1.95726 13
-9.10678 -9.57075 1.98028 14
-9.10767 -9.56985 2.00328 13
-9.10193 -9.58205 2.02629 14
-9.14072 -9.54497 2.04922 12
-9.10502 -9.58592 2.07233 12
-9.13595 -9.55634 2.09528 14
-9.12151 -9.55607 2.12052 13
-9.12596 -9.57227 2.14138 13
-9.11665 -9.58074 2.16442 14
-9.10698 -9.56874 2.18723 15
-9.10958 -9.58636 2.21047 13
-9.15162 -9.55263 2.23349 17
-9.10711 -9.58774 2.25651 14
-9.13604 -9.5527 2.27936 17
-9.10165 -9.59172 2.30255 15
-9.12906 -9.57179 2.32564 15
-9.11441 -9.578 2.34855 14
-9.11653 -9.57503 2.37156 13
-9.11034 -9.58678 2.39473 13
-9.14871 -9.54919 2.41767 13
-9.10742 -9.58769 2.44078 13
-9.1396 -9.55602 2.46373 13
-9.09464 -9.58395 2.48645 13
-9.11551 -9.57542 2.53281 14
-9.11955 -9.58938 2.57949 13
-9.11451 -9.59142 2.62557 11
-9.1116 -9.59809 2.67189 13
-9.17051 -9.57751 2.83519 13
-9.11541 -9.56597 3.0635 17
-4.35969 -4.57523 2.68045 69
-9.13035 -9.59152 3.77711 36
-6.77565 -7.13156 3.7474 12
-5.3002 -5.52794 3.70569 20
-4.2685 -4.48985 3.7799 39
-1.58479 -1.65245 1.00436 8
nan nan nan nan
-1.78673 -1.86373 1.32365 5
-2.57427 -2.70154 1.18612 8
-5.41614 -5.64683 0.538694 3
-6.13066 -6.38244 0.567846 3
-6.8676 -7.15871 0.58774 3
-7.53921 -7.86293 0.620107 3
-9.1187 -9.49503 0.493459 4
-8.91448 -9.32261 0.637689 3
-9.20149 -9.5739 0.667362 4
-9.2035 -9.59661 0.747359 3
-4.35456 -4.54068 1.44509 19
-4.3729 -4.57401 1.46395 52
-4.35982 -4.56816 1.48715 81
-4.38114 -4.55721 1.50864 46
-4.35697 -4.54142 1.53285 62
-4.39237 -4.59257 1.55042 36
-9.1773 -9.60611 1.1023 17
-9.17457 -9.54378 1.14941 13
-9.14777 -9.53216 1.19735 11
-4.3993 -4.60765 1.63812 5
-4.43198 -4.64006 1.65779 3
-4.41979 -4.60509 1.68182 4
-4.42761 -4.61307 1.7035 4
-4.38949 -4.59559 1.72747 5
-4.4488 -4.65745 1.74611 6
-9.16577 -9.55046 1.51913 3
-9.1566 -9.53391 1.56587 17
-9.18893 -9.55239 1.58776 20
-9.15349 -9.58037 1.61105 20
-9.18845 -9.56155 1.63378 17
-9.17852 -9.5995 1.65638 17
-9.19595 -9.57668 1.67958 13
-9.19219 -9.57425 1.70281 20
-9.19196 -9.5822 1.72582 10
-9.20337 -9.57886 1.74882 20
-9.21309 -9.57709 1.77415 13
-9.17553 -9.59968 1.79519 14
-9.20174 -9.57496 1.81825 17
-9.18976 -9.6075 1.84123 13
-9.19839 -9.57882 1.86449 14
-9.19094 -9.57255 1.88769 11
-9.19049 -9.58026 1.91077 12
-9.18949 -9.56066 1.93393 13
-9.18213 -9.56787 1.95703 12
-9.17473 -9.57501 1.98013 14
-9.17216 -9.57049 2.00321 12
-9.16989 -9.58634 2.02631 14
-9.21214 -9.55261 2.04934 13
-9.16952 -9.58661 2.0725 13
-9.20393 -9.56041 2.09556 12
-9.19292 -9.56382 2.12094 13
-9.19395 -9.57643 2.14184 12
-9.18464 -9.58495 2.16496 14
-9.17493 -9.57298 2.18786 13
-9.17411 -9.587 2.21111 13
-9.21962 -9.55661 2.2343 12
-9.17507 -9.59202 2.2574 13
-9.20401 -9.55675 2.28033 12
-9.16616 -9.59241 2.3035 13
-9.19705 -9.57591 2.32679 13
-9.18238 -9.5822 2.34979 14
-9.17759 -9.572 2.37261 12
-9.17832 -9.591 2.39615 13
-9.22016 -9.55676 2.41933 17
-9.17538 -9.59194 2.44237 12
-9.21104 -9.56364 2.46558 11
-9.17293 -9.5991 2.48877 17
-9.19039 -9.5868 2.53515 14
-9.19101 -9.59714 2.58182 12
-9.18593 -9.59923 2.62809 14
-9.18303 -9.60591 2.6746 13
-9.22817 -9.57056 2.83732 13
-9.19021 -9.5772 3.06824 13
-4.3619 -4.54561 2.67827 69
-9.19816 -9.59529 3.7837 36
-6.80059 -7.1078 3.74735 12
-5.31616 -5.50583 3.70456 20
-4.28756 -4.47832 3.78125 41
-1.6032 -1.6601 0.996236 8
nan nan nan nan
-1.79991 -1.86446 1.32106 5
-2.58026 -2.68905 1.18718 6
-5.43574 -5.62796 0.538652 3
-6.15626 -6.36461 0.566994 3
-6.89247 -7.13475 0.587687 3
-9.19601 -9.52443 0.321119 3
-9.22422 -9.5382 0.48139 4
-8.9124 -9.25569 0.642901 3
-9.27284 -9.5811 0.661769 4
-9.28526 -9.61463 0.740686 4
-4.37035 -4.52548 1.44505 30
-4.3819 -4.55157 1.46477 52
-4.3688 -4.54576 1.48793 32
-4.38313 -4.52758 1.51018 46
-4.36584 -4.51904 1.53357 60
-4.3772 -4.54491 1.5536 33
-9.25224 -9.61719 1.09816 13
-9.2633 -9.56911 1.14418 17
-9.22602 -9.54687 1.19331 12
-4.38419 -4.55991 1.64068 5
-4.42735 -4.603 1.65938 4
-4.41848 -4.57169 1.68305 4
-4.42978 -4.58323 1.70441 4
-4.39856 -4.57306 1.72787 5
-4.44422 -4.62032 1.74728 6
-9.2372 -9.55796 1.51704 4
-9.23496 -9.54861 1.56364 17
-9.26044 -9.55976 1.58596 9
-9.22497 -9.588 1.60935 14
-9.26347 -9.57253 1.63203 11
-9.25356 -9.61062 1.65474 13
-9.26751 -9.58408 1.67816 12
-9.26722 -9.58526 1.70137 13
-9.27047 -9.59681 1.72438 11
-9.27844 -9.5898 1.74759 13
-9.28471 -9.58438 1.77313 14
-9.25404 -9.61443 1.7941 14
-9.28029 -9.58949 1.81727 13
-9.26139 -9.61498 1.84048 14
-9.27345 -9.58981 1.86378 12
-9.26946 -9.58716 1.88705 13
-9.26554 -9.59129 1.91027 13
-9.26452 -9.57165 1.93355 13
-9.26064 -9.5825 1.95673 13
-9.24975 -9.58611 1.97995 12
-9.25065 -9.58518 2.00313 14
-9.2484 -9.60108 2.02636 13
-9.28722 -9.56345 2.04947 12
-9.24801 -9.60137 2.07277 13
-9.279 -9.57131 2.0959 13
-9.26798 -9.57479 2.1214 12
-9.26555 -9.58381 2.14234 14
-9.25971 -9.596 2.16562 14
-9.25344 -9.58765 2.18869 13
-9.25263 -9.6017 2.21206 13
-9.2982 -9.57099 2.23535 13
-9.25011 -9.60314 2.25848 10
-9.27908 -9.56763 2.28151 13
-9.24466 -9.60717 2.30491 12
-9.26519 -9.57967 2.32794 12
-9.25397 -9.58964 2.35116 12
-9.2561 -9.58663 2.37435 11
-9.24992 -9.59847 2.39771 12
-9.29177 -9.56395 2.42098 12
-9.25388 -9.60664 2.44445 13
-9.28961 -9.57805 2.46777 14
-9.24798 -9.61021 2.49089 13
-9.26547 -9.59777 2.53749 14
-9.26263 -9.60453 2.58415 13
-9.26099 -9.61025 2.63084 11
-9.25463 -9.61335 2.67731 12
-9.30327 -9.58123 2.84101 12
-9.2548 -9.57728 3.07178 12
-4.36395 -4.51603 2.67609 67
-9.25578 -9.588 3.78829 36
-6.82544 -7.08395 3.7473 11
-5.36604 -5.51866 3.71432 20
-4.27658 -4.43558 3.77013 40
-1.62169 -1.66765 0.988117 8
-1.68694 -1.74348 1.20421 8
-1.81311 -1.86511 1.31846 4
-2.58619 -2.67656 1.18824 6
-5.45528 -5.60901 0.538608 3
-6.17836 -6.34315 0.566944 3
-6.91726 -7.11072 0.587631 3
-7.6076 -7.82446 0.61746 3
-9.31283 -9.56294 0.472173 4
-8.9515 -9.23172 0.641775 3
-9.34783 -9.59147 0.65567 3
-9.35339 -9.61791 0.735896 4
-4.36873 -4.49237 1.44724 30
-4.37345 -4.51124 1.46772 52
-4.36728 -4.51261 1.48995 31
-4.38497 -4.498 1.51171 48
-4.37809 -4.50022 1.53391 60
-4.37912 -4.51531 1.555 29
-9.31348 -9.61353 1.09538 13
-9.32793 -9.56892 1.1412 13
-9.29753 -9.55399 1.18988 10
-4.39658 -4.54101 1.64093 5
-4.4399 -4.58395 1.65962 6
-4.42743 -4.54909 1.68352 4
-4.43877 -4.5606 1.70485 3
-4.40057 -4.54334 1.72871 6
-4.45335 -4.59762 1.74765 5
-9.31229 -9.56866 1.51477 4
-9.29958 -9.54856 1.56207 12
-9.32863 -9.56317 1.58431 8
-9.29662 -9.59524 1.60764 14
-9.33518 -9.57952 1.63041 11
-9.32183 -9.61415 1.65336 12
-9.33924 -9.5911 1.67674 12
-9.33895 -9.59228 1.70005 12
-9.33526 -9.59667 1.72336 12
-9.34324 -9.5896 1.74665 12
-9.34602 -9.58055 1.77236 12
-9.31537 -9.6108 1.7934 12
-9.34162 -9.58569 1.81663 13
-9.32622 -9.61489 1.83986 12
-9.34173 -9.59322 1.86318 13
-9.33773 -9.59058 1.88654 11
-9.33381 -9.59474 1.90985 13
-9.33974 -9.58223 1.93315 14
-9.33239 -9.58954 1.95646 13
-9.32497 -9.59679 1.97977 14
-9.32587 -9.59585 2.00306 13
-9.32364 -9.6118 2.02639 12
-9.36248 -9.57389 2.04961 14
-9.32323 -9.61211 2.07301 14
-9.35426 -9.5818 2.09624 13
-9.34322 -9.58535 2.12186 14
-9.3408 -9.5944 2.14289 13
-9.33148 -9.60305 2.16622 14
-9.32519 -9.59471 2.18938 12
-9.32441 -9.6088 2.21284 13
-9.36651 -9.57422 2.23615 12
-9.32186 -9.61027 2.25946 13
-9.35085 -9.57452 2.28259 12
-9.31293 -9.61074 2.30597 13
-9.34392 -9.59381 2.32945 13
-9.32921 -9.60028 2.35265 13
-9.32785 -9.59366 2.37581 14
-9.32516 -9.60914 2.39941 14
-9.36705 -9.57432 2.42279 13
-9.32216 -9.61014 2.44603 12
-9.35442 -9.57773 2.46926 13
-9.31278 -9.61015 2.49247 12
-9.3268 -9.59401 2.53902 12
-9.33094 -9.60794 2.58626 13
-9.3258 -9.61011 2.63289 14
-9.32292 -9.61682 2.67977 11
-9.37506 -9.58791 2.84439 14
-9.34384 -9.60202 3.07811 17
-4.37278 -4.49362 2.67499 64
-9.32729 -9.59464 3.79554 35
-6.86049 -7.07061 3.74987 12
-5.38194 -5.49634 3.71319 17
-4.2687 -4.39643 3.7604 28
-1.63064 -1.66529 0.986076 6
-1.7029 -1.7478 1.19944 7
-1.82295 -1.86225 1.31716 4
-2.59547 -2.66755 1.18822 6
-5.47818 -5.59351 0.537639 3
-6.20039 -6.32161 0.566892 3
-6.94196 -7.08659 0.587573 3
-7.62785 -7.79083 0.618661 3
-9.40171 -9.58719 0.462952 4
-8.98359 -9.20049 0.641701 3
-9.38814 -9.56595 0.654587 3
-9.41817 -9.61728 0.731574 4
-4.3739 -4.46645 1.44854 35
-4.36825 -4.47459 1.47025 56
-4.36905 -4.4831 1.49155 33
-4.38666 -4.46845 1.51325 44
-4.37979 -4.47068 1.53537 58
-4.38786 -4.49288 1.55568 35
-9.37131 -9.606 1.09292 20
-9.40666 -9.58264 1.13692 17
-9.35871 -9.55004 1.18736 11
-4.41239 -4.52566 1.64089 6
-4.44539 -4.55773 1.66039 5
-4.43278 -4.52292 1.68424 5
-4.43717 -4.52726 1.70599 5
-4.39894 -4.51009 1.72976 6
-4.44841 -4.56061 1.74882 5
-9.38057 -9.57182 1.51285 5
-9.37132 -9.55531 1.56017 17
-9.40045 -9.56979 1.58251 9
-9.36493 -9.59852 1.60608 12
-9.40355 -9.58257 1.62894 10
-9.39373 -9.62091 1.65184 11
-9.41112 -9.59773 1.67532 13
-9.40734 -9.59534 1.69883 12
-9.40716 -9.60332 1.72213 11
-9.42215 -9.60333 1.74532 20
-9.42494 -9.59425 1.77115 17
-9.38726 -9.61759 1.79245 25
-9.41703 -9.59584 1.81571 14
-9.39816 -9.62162 1.83911 20
-9.41014 -9.59627 1.86258 11
-9.40613 -9.59365 1.88602 17
-9.40222 -9.59783 1.90942 14
-9.40464 -9.58169 1.93284 13
-9.39729 -9.58905 1.95623 12
-9.38988 -9.59635 1.97961 14
-9.39079 -9.5954 2.00298 12
-9.38509 -9.60781 2.02638 13
-9.4274 -9.57323 2.04968 14
-9.39165 -9.61528 2.07319 13
-9.41919 -9.58119 2.09648 13
-9.40814 -9.58479 2.12218 13
-9.40924 -9.59744 2.14334 12
-9.39642 -9.60258 2.16669 13
-9.39011 -9.59425 2.18993 12
-9.39285 -9.61194 2.21355 13
-9.43846 -9.58065 2.23702 14
-9.39028 -9.61343 2.26034 13
-9.42277 -9.58102 2.28366 14
-9.38832 -9.6211 2.30725 13
-9.41586 -9.60038 2.33071 14
-9.40113 -9.60694 2.35401 14
-9.40326 -9.60388 2.3774 14
-9.3936 -9.61226 2.40082 13
-9.43549 -9.57716 2.42428 14
-9.39407 -9.61686 2.44778 14
-9.42285 -9.58064 2.47093 13
-9.38118 -9.61333 2.49422 13
-9.3952 -9.59708 2.54094 14
-9.39589 -9.60742 2.58814 13
-9.39073 -9.60963 2.63493 11
-9.39134 -9.61993 2.68222 13
-9.42952 -9.57644 2.84619 12
-9.4227 -9.61558 3.08325 12
-4.37455 -4.4641 2.67281 59
-9.40589 -9.60798 3.80411 35
-6.8921 -7.05359 3.75157 11
-5.40461 -5.48093 3.71423 11
-4.26396 -4.36082 3.75205 34
-1.64281 -1.66614 0.982009 8
-1.71228 -1.74526 1.19784 6
-1.84299 -1.86966 1.31198 3
-2.59105 -2.64457 1.19252 6
-5.50104 -5.57792 0.536667 3
-6.2258 -6.3035 0.566034 3
-6.96658 -7.06238 0.587513 3
-7.60966 -7.7183 0.626812 3
-9.47343 -9.59326 0.456584 4
-9.01906 -9.17268 0.641096 3
-9.43539 -9.54733 0.652496 3
-9.47957 -9.61277 0.727719 5
-4.37895 -4.44054 1.44983 38
-4.38032 -4.45579 1.47064 56
-4.37417 -4.45718 1.49275 32
-4.39169 -4.4425 1.51438 44
-4.38133 -4.44119 1.53683 55
-4.39299 -4.4669 1.55671 30
-9.45369 -9.62308 1.08809 14
-9.46104 -9.57108 1.1349 12
-9.4305 -9.55643 1.18392 10
-4.40715 -4.48888 1.64258 6
-4.43675 -4.51728 1.66225 6
-4.42748 -4.4861 1.68572 6
-4.43538 -4.49398 1.70713 6
-4.40064 -4.48047 1.7306 6
-4.44677 -4.52726 1.74978 5
-9.44197 -9.5675 1.51131 5
-9.4397 -9.55812 1.55843 13
-9.47243 -9.57602 1.58069 13
-9.43689 -9.605 1.60437 11
-9.47205 -9.58525 1.62746 14
-9.46229 -9.62371 1.65045 13
-9.48317 -9.60397 1.67389 12
-9.47587 -9.59804 1.69762 14
-9.47219 -9.60248 1.72111 13
-9.48721 -9.60241 1.74437 13
-9.49351 -9.59685 1.7702 14
-9.4523 -9.61687 1.79166 13
-9.47858 -9.59137 1.81507 12
-9.46674 -9.62441 1.83841 13
-9.47869 -9.59896 1.86197 14
-9.47116 -9.5928 1.88555 12
-9.46725 -9.597 1.90902 13
-9.47669 -9.58793 1.93247 13
-9.46933 -9.59534 1.95595 13
-9.45841 -9.59913 1.97944 13
-9.45932 -9.59818 2.0029 13
-9.45715 -9.61419 2.02639 13
-9.49595 -9.57578 2.04977 13
-9.46021 -9.6181 2.07337 13
-9.48775 -9.58379 2.09674 14
-9.47669 -9.58745 2.12254 13
-9.47781 -9.60011 2.14377 20
-9.46498 -9.60533 2.16722 13
-9.45864 -9.59702 2.19055 14
-9.45441 -9.60759 2.2141 12
-9.50001 -9.57604 2.23764 11
-9.45533 -9.61267 2.26112 12
-9.48431 -9.57648 2.28441 13
-9.44989 -9.61678 2.30808 12
-9.48094 -9.59945 2.33173 12
-9.46269 -9.60254 2.35498 13
-9.46482 -9.59946 2.37844 13
-9.46218 -9.61501 2.40222 10
-9.50054 -9.57609 2.4256 13
-9.45913 -9.61607 2.44919 11
-9.49141 -9.58318 2.47259 14
-9.44972 -9.61615 2.49597 12
-9.46725 -9.60334 2.54307 14
-9.47146 -9.61725 2.59067 13
-9.46627 -9.6195 2.63767 13
-9.4599 -9.62268 2.68467 12
-9.51211 -9.59305 2.8505 12
-9.47376 -9.60033 3.08517 12
-4.36919 -4.42755 2.66956 57
-9.49166 -9.62794 3.81401 36
-6.91676 -7.02942 3.75151 11
-5.41348 -5.45157 3.71091 8
-4.2725 -4.33899 3.74924 32
-1.65501 -1.66692 0.977941 8
-1.72832 -1.74942 1.19307 8
-1.8699 -1.88379 1.30422 3
-2.60022 -2.63555 1.19249 6
-5.51348 -5.55178 0.538466 4
-6.24769 -6.2818 0.565978 3
-7.00506 -7.05213 0.584615 3
-9.5111 -9.5768 0.287931 3
-9.54881 -9.60247 0.449641 4
-9.05795 -9.14827 0.63996 3
-9.46859 -9.5144 0.652411 3
-9.56208 -9.62914 0.721031 4
-4.38112 -4.41035 1.45157 40
-4.38179 -4.42634 1.47231 56
-4.37565 -4.42774 1.49435 30
-4.39308 -4.41303 1.51592 46
-4.3835 -4.41098 1.53829 54
-4.38396 -4.42676 1.55918 22
-9.52227 -9.62552 1.08461 13
-9.52954 -9.57341 1.13159 17
-9.49356 -9.55016 1.18138 8
-4.41224 -4.46284 1.64341 6
-4.4349 -4.48405 1.66356 6
-4.43254 -4.46001 1.68644 5
-4.43772 -4.46354 1.70803 6
-4.40921 -4.458 1.731 6
-4.44495 -4.49397 1.75075 5
-9.50697 -9.56641 1.50957 5
-9.50821 -9.56057 1.55668 14
-9.53751 -9.57479 1.57919 9
-9.50197 -9.604 1.60295 14
-9.54069 -9.58757 1.62597 11
-9.53098 -9.62615 1.64905 14
-9.54832 -9.60274 1.6727 12
-9.53748 -9.59329 1.69662 13
-9.53734 -9.6013 1.72008 11
-9.55406 -9.59948 1.74342 12
-9.55163 -9.58846 1.76951 12
-9.51745 -9.6158 1.79087 12
-9.55078 -9.59721 1.81421 13
-9.53545 -9.62683 1.83772 12
-9.54737 -9.60129 1.86136 13
-9.54687 -9.60224 1.88493 13
-9.54297 -9.60648 1.90852 15
-9.54703 -9.58858 1.93211 13
-9.54153 -9.60125 1.95567 13
-9.5306 -9.6051 1.97926 13
-9.52799 -9.60059 2.00281 13
-9.52232 -9.61309 2.02638 12
-9.56111 -9.57443 2.04984 12
-9.52538 -9.617 2.07352 13
-9.55291 -9.58249 2.09697 12
-9.54352 -9.58454 2.12285 14
-9.54652 -9.60242 2.14421 13
-9.5372 -9.61127 2.1678 14
-9.53084 -9.60296 2.19123 13
-9.53013 -9.61712 2.21495 14
-9.57577 -9.58527 2.23859 15
-9.53105 -9.62223 2.26219 12
-9.56004 -9.58579 2.28558 15
-9.52208 -9.62282 2.30924 17
-9.55318 -9.60527 2.33298 14
-9.53842 -9.61201 2.35646 15
-9.53703 -9.60536 2.37989 12
-9.5344 -9.62095 2.40376 13
-9.5763 -9.5853 2.4274 13
-9.53485 -9.62559 2.45109 14
-9.56716 -9.59244 2.47459 13
-9.52542 -9.62571 2.49809 13
-9.54298 -9.61276 2.54539 13
-9.5437 -9.62311 2.59299 13
-9.53497 -9.62186 2.63994 12
-9.5321 -9.62861 2.68736 11
-9.58083 -9.59507 2.85354 12
-9.5424 -9.60251 3.08909 14
-4.37414 -4.40167 2.66791 56
-9.54974 -9.61929 3.81858 36
-6.9552 -7.01916 3.75495 11
-5.43256 -5.43257 3.71086 9
-4.27756 -4.31374 3.74505 35
-1.67046 -1.67087 0.971845 8
-1.74441 -1.75349 1.18829 6
-1.91062 -1.91141 1.2913 3
-2.60591 -2.62303 1.19355 5
-5.52927 -5.52909 0.53934 3
-6.26601 -6.25653 0.566724 3
-7.02955 -7.0277 0.58455 3
-7.71498 -7.71154 0.617816 3
-9.60679 -9.59372 0.445552 4
-9.0722 -9.09906 0.642518 3
-9.50167 -9.48136 0.652323 3
-9.62372 -9.62393 0.717169 3
-4.38314 -4.38021 1.45331 46
-4.38663 -4.40046 1.47356 58
-4.3805 -4.40187 1.49554 27
-4.39785 -4.38712 1.51705 46
-4.38902 -4.38433 1.53937 48
-4.39232 -4.40439 1.55985 12
-9.60506 -9.64173 1.07978 20
-9.5911 -9.56833 1.12891 14
-9.57082 -9.55766 1.17763 6
-4.40311 -4.42267 1.64539 6
-4.43993 -4.45795 1.66433 6
-4.43394 -4.4304 1.68741 6
-4.44343 -4.43667 1.70869 5
-4.41415 -4.43198 1.73161 6
-4.44649 -4.46429 1.75151 5
-9.56854 -9.56145 1.50801 6
-9.57499 -9.55746 1.5551 14
-9.60624 -9.57674 1.57753 9
-9.57069 -9.6062 1.60138 14
-9.613 -9.59306 1.62434 10
-9.60686 -9.63531 1.64739 13
-9.62065 -9.60824 1.67127 14
-9.61332 -9.60236 1.69517 16
-9.61319 -9.61038 1.71873 18
-9.63163 -9.60678 1.74217 20
-9.63105 -9.60095 1.7683 16
-9.5933 -9.62502 1.78984 17
-9.62669 -9.6062 1.81328 13
-9.61137 -9.63596 1.83689 15
-9.62325 -9.61033 1.86064 14
-9.61922 -9.60774 1.88436 12
-9.61532 -9.612 1.90804 12
-9.62105 -9.59236 1.93173 13
-9.61035 -9.60323 1.9554 12
-9.60647 -9.61422 1.97906 14
-9.60033 -9.60617 2.00272 13
-9.60173 -9.6258 2.02641 15
-9.64054 -9.58685 2.04997 14
-9.60832 -9.63326 2.07379 13
-9.63234 -9.59496 2.09733 14
-9.62461 -9.59539 2.12333 13
-9.61889 -9.60791 2.14469 12
-9.60957 -9.61681 2.16838 14
-9.60319 -9.60853 2.19191 12
-9.6025 -9.62271 2.21573 14
-9.64817 -9.59056 2.23946 12
-9.60341 -9.62784 2.26316 14
-9.63241 -9.59116 2.28663 13
-9.59964 -9.63033 2.31051 13
-9.62557 -9.61071 2.33424 17
-9.61079 -9.61753 2.35781 13
-9.6094 -9.61087 2.38133 10
-9.60679 -9.6265 2.40531 13
-9.64515 -9.58704 2.42887 12
-9.60723 -9.63116 2.45282 12
-9.64664 -9.60481 2.47676 14
-9.60299 -9.63319 2.50019 12
-9.61889 -9.62176 2.5477 14
-9.62316 -9.63566 2.59573 14
-9.6038 -9.62386 2.64221 13
-9.6132 -9.63955 2.69056 14
-9.64968 -9.59674 2.85659 14
-9.61821 -9.61138 3.09381 13
-4.37895 -4.37581 2.66627 49
-9.61489 -9.61735 3.82448 36
-6.99017 -7.00522 3.75752 11
-5.46542 -5.42726 3.71517 14
-4.27985 -4.28436 3.73947 39
-1.68271 -1.67152 0.967776 8
-1.76055 -1.75747 1.18352 6
-1.96869 -1.95578 1.27193 3
-2.61156 -2.61051 1.19461 5
-5.55543 -5.51675 0.537438 3
-6.28773 -6.23468 0.566664 3
-7.05397 -7.00318 0.584482 3
-7.73206 -7.68033 0.619014 3
nan nan nan nan
-9.09678 -9.06038 0.643489 3
-9.53816 -9.4517 0.651729 3
-9.69249 -9.62542 0.71236 3
-4.38625 -4.35591 1.4546 54
-4.39488 -4.37811 1.47437 61
-4.38169 -4.37251 1.49714 26
-4.39187 -4.35071 1.51937 46
-4.3886 -4.35649 1.54084 41
-9.65685 -9.61343 1.0285 4
-9.67747 -9.64692 1.07595 13
-9.66337 -9.57347 1.12527 17
-9.65389 -9.58031 1.17296 5
-4.4185 -4.40729 1.64534 8
-4.44837 -4.43539 1.66483 5
-4.44227 -4.40788 1.68788 6
-4.4467 -4.41215 1.70936 5
-4.4225 -4.40951 1.73201 6
-4.44787 -4.43466 1.75227 5
-9.65502 -9.58083 1.50517 6
-9.65106 -9.57311 1.55285 12
-9.68576 -9.58888 1.57539 10
-9.6537 -9.62214 1.5992 14
-9.69256 -9.60519 1.62243 14
-9.67229 -9.63347 1.64612 14
-9.69314 -9.61335 1.66983 13
-9.70353 -9.6251 1.69326 13
-9.67503 -9.60496 1.7178 11
-9.69202 -9.60986 1.74122 12
-9.69292 -9.59543 1.76751 14
-9.67287 -9.63736 1.78873 14
-9.68501 -9.59718 1.8127 13
-9.68746 -9.64468 1.83607 14
-9.68512 -9.60486 1.86013 11
-9.69883 -9.6199 1.8837 17
-9.67719 -9.60658 1.90767 13
-9.68497 -9.59898 1.93138 17
-9.68994 -9.61542 1.95508 14
-9.68253 -9.62293 1.97886 16
-9.67991 -9.61841 2.00262 14
-9.6778 -9.63455 2.02642 14
-9.69884 -9.57774 2.04999 12
-9.66668 -9.62436 2.07388 13
-9.70843 -9.60348 2.09765 14
-9.69565 -9.60903 2.12378 12
-9.69497 -9.61652 2.14523 14
-9.68919 -9.62902 2.16908 14
-9.68279 -9.62074 2.19272 13
-9.68567 -9.63849 2.21673 14
-9.7136 -9.58844 2.24015 13
-9.66885 -9.626 2.26393 11
-9.69783 -9.58911 2.28748 14
-9.65986 -9.62667 2.31133 12
-9.69812 -9.61575 2.33548 16
-9.69041 -9.62971 2.35942 14
-9.69256 -9.62656 2.38319 13
-9.68996 -9.64224 2.40729 12
-9.71769 -9.59193 2.4305 13
-9.67267 -9.62929 2.45422 13
-9.70144 -9.59215 2.47771 12
-9.67737 -9.6436 2.5023 12
-9.69143 -9.62683 2.54982 14
-9.68156 -9.62664 2.59716 13
-9.67275 -9.62549 2.64447 11
-9.68052 -9.64285 2.693 13
-9.71866 -9.59803 2.85963 11
-9.69067 -9.61632 3.09813 12
-4.38365 -4.34997 2.66462 41
-9.68366 -9.61858 3.83104 36
-7.02862 -6.9946 3.76095 11
-5.48094 -5.40466 3.71402 27
-4.2839 -4.25992 3.73527 40
-1.68523 -1.66247 0.969786 8
-1.77 -1.75469 1.18192 6
-2.03743 -2.00994 1.24869 4
-2.62061 -2.60141 1.19458 5
-5.56758 -5.49048 0.539232 3
-6.3129 -6.21622 0.565797 3
-7.08534 -6.98553 0.582995 3
-7.73756 -7.63245 0.622731 3
-7.20296 -7.09385 0.844321 3
-9.14242 -9.04262 0.641288 3
-9.58166 -9.42887 0.650128 3
-4.38636 -4.32286 1.4232 3
-4.38721 -4.32661 1.45634 56
-4.39239 -4.34526 1.47646 52
-4.38627 -4.34669 1.49833 26
-4.39635 -4.32489 1.5205 38
-4.39665 -4.33417 1.54154 39
-9.71157 -9.60075 1.02625 4
-9.7465 -9.64821 1.07246 14
-9.72513 -9.56772 1.12259 14
-9.69789 -9.55711 1.17195 5
-4.42674 -4.38484 1.64588 8
-4.45316 -4.40932 1.6656 6
-4.44695 -4.38184 1.68859 6
-4.45138 -4.3861 1.71003 5
-4.42009 -4.37649 1.73306 8
-4.4562 -4.41209 1.75263 6
-9.69905 -9.55762 1.50452 8
-9.71454 -9.56575 1.55142 14
-9.74765 -9.58307 1.57403 10
-9.70852 -9.6095 1.59822 14
-9.75094 -9.59586 1.62136 10
-9.75204 -9.64535 1.64432 17
-9.76221 -9.61456 1.66851 5
-9.74773 -9.60171 1.69282 17
-9.74764 -9.60976 1.71654 8
-9.76635 -9.61286 1.74006 12
-9.76912 -9.60361 1.76637 11
-9.72776 -9.62465 1.78816 14
-9.76477 -9.6089 1.81169 12
-9.7495 -9.63893 1.83548 12
-9.76131 -9.61312 1.8594 12
-9.75726 -9.61056 1.88329 13
-9.75337 -9.61487 1.90715 10
-9.75571 -9.5985 1.93102 13
-9.75193 -9.60962 1.95484 13
-9.74453 -9.61717 1.9787 12
-9.73478 -9.60564 2.00253 13
-9.7576 -9.6464 2.02643 12
nan nan nan nan
nan nan nan nan
-9.76685 -9.59406 2.09779 14
-9.75575 -9.59798 2.12399 13
-9.75698 -9.61069 2.14555 13
-9.74766 -9.61972 2.16941 13
-9.74123 -9.61146 2.19311 13
-9.7406 -9.6257 2.21711 13
-9.78628 -9.59297 2.241 13
-9.74149 -9.63086 2.26488 13
-9.77048 -9.59373 2.28853 13
-9.73605 -9.63508 2.31259 13
-9.76369 -9.6134 2.33648 13
-9.74889 -9.62039 2.36024 13
-9.74747 -9.61371 2.38393 13
-9.74847 -9.63293 2.40823 13
-9.78324 -9.58944 2.43181 13
-9.74888 -9.63762 2.45611 14
-9.78836 -9.61073 2.48023 13
-9.74296 -9.64138 2.50385 14
-9.76413 -9.63152 2.55193 13
-9.76846 -9.64539 2.60033 13
nan nan nan nan
-9.7532 -9.6476 2.69568 12
nan nan nan nan
nan nan nan nan
-4.38467 -4.32066 2.66243 40
-9.75961 -9.62639 3.83893 32
-7.04958 -6.9665 3.76001 10
-5.465 -5.35128 3.70307 17
-4.27832 -4.22461 3.72692 39
-1.70076 -1.66621 0.963688 8
-1.7896 -1.76183 1.17556 6
-2.07202 -2.02987 1.23835 5
-2.62615 -2.58886 1.19563 5
-4.42514 -4.33251 0.845158 4
-6.33095 -6.19076 0.566537 3
-4.42222 -4.32882 1.12192 6
nan nan nan nan
-9.86272 -9.64562 0.420115 3
-9.15611 -8.9933 0.643838 3
-4.40816 -4.30976 1.38475 3
-4.41205 -4.318 1.42174 37
-4.41649 -4.32524 1.45452 47
-4.4075 -4.32992 1.47642 30
-4.40139 -4.33138 1.49828 35
-4.39714 -4.2956 1.52203 38
-4.40104 -4.30835 1.54262 38
-9.76989 -9.59129 1.02365 4
-9.83344 -9.66661 1.06727 17
nan nan nan nan
-9.79178 -9.58258 1.16665 4
-4.42776 -4.35538 1.64699 8
-4.46137 -4.38677 1.6661 5
-4.45149 -4.35582 1.68931 6
-4.45594 -4.36007 1.71069 5
-4.42464 -4.35054 1.73367 8
-4.46087 -4.38602 1.75319 5
-9.7823 -9.57266 1.50185 6
-9.78714 -9.57024 1.5495 11
-9.82393 -9.5909 1.57204 7
-9.79188 -9.62462 1.59604 12
-9.83441 -9.61068 1.6193 5
-9.81416 -9.63928 1.64317 12
-4.36183 -4.26307 1.8548 60
-9.80974 -9.59561 1.69181 10
-4.36648 -4.27353 1.87577 9
nan nan nan nan
-4.37205 -4.26849 1.89802 6
-9.81121 -9.63969 1.78696 13
nan nan nan nan
-9.82946 -9.65038 1.83458 14
nan nan nan nan
-9.84434 -9.62891 1.88254 11
-4.36031 -4.26724 1.96066 22
nan nan nan nan
-9.83187 -9.62099 1.95451 6
-9.82803 -9.6321 1.97847 13
-9.82182 -9.62409 2.00242 12
-9.82333 -9.6438 2.02641 17
-4.39735 -4.27935 2.02425 16
-4.38657 -4.30475 2.035 6
-9.85038 -9.6088 2.09817 4
-9.83926 -9.61278 2.1245 6
-9.83693 -9.62202 2.14612 5
-9.83117 -9.63462 2.17016 12
-9.82473 -9.62637 2.19398 11
-9.82768 -9.64414 2.21818 12
-4.38326 -4.26388 2.10906 27
-4.35386 -4.27237 2.11945 10
nan nan nan nan
nan nan nan nan
nan nan nan nan
-9.83241 -9.63526 2.36196 10
-9.83098 -9.62856 2.38578 10
-9.832 -9.64782 2.4102 13
-4.37475 -4.25533 2.19362 36
-4.38449 -4.30221 2.20559 28
nan nan nan nan
-9.82647 -9.65633 2.50631 4
-9.84055 -9.63931 2.55423 8
nan nan nan nan
-4.35798 -4.27443 2.28918 38
-9.82959 -9.65547 2.69862 3
-4.36291 -4.2477 2.38379 10
nan nan nan nan
-4.3891 -4.29487 2.66078 39
-9.80386 -9.60259 3.84083 20
-7.09502 -6.96247 3.76519 11
-5.48373 -5.3321 3.70302 17
-4.27598 -4.19276 3.71995 35
-1.71307 -1.66669 0.959617 8
-1.79909 -1.75892 1.17395 6
-2.10331 -2.04621 1.22929 6
-2.63513 -2.57971 1.19561 4
-4.40848 -4.28624 0.853432 86
-4.41291 -4.28411 1.00714 11
-4.40887 -4.28579 1.12755 57
nan nan nan nan
nan nan nan nan
-4.39603 -4.28905 1.35477 3
-4.36958 -4.24242 1.39224 70
-4.40923 -4.28525 1.42405 43
-4.41725 -4.29593 1.45625 56
-4.41899 -4.31106 1.4768 29
-4.39862 -4.29861 1.50029 31
-4.39062 -4.25941 1.52434 43
-4.39458 -4.27213 1.54483 37
-9.83539 -9.5885 1.02033 3
nan nan nan nan
-4.41377 -4.28013 1.60767 52
-4.39246 -4.26833 1.63055 8
-4.41434 -4.31202 1.64925 8
-4.40873 -4.30496 1.6712 5
-4.43801 -4.31242 1.69129 8
-4.43888 -4.31318 1.71277 9
-4.41476 -4.31066 1.73515 8
-4.40817 -4.30416 1.75697 6
-4.40576 -4.27931 1.77905 24
-4.3928 -4.26516 1.80103 16
-4.4068 -4.27276 1.81117 82
nan nan nan nan
nan nan nan nan
-9.89425 -9.65035 1.64137 6
-4.37668 -4.24783 1.85476 85
-4.38695 -4.25927 1.865 33
-4.37778 -4.25479 1.87583 58
-4.37376 -4.24493 1.88661 35
-4.40845 -4.27409 1.89745 73
nan nan nan nan
nan nan nan nan
-9.89888 -9.65092 1.83387 4
-4.41373 -4.28358 1.9389 93
-4.38804 -4.26007 1.94988 41
-4.38593 -4.26246 1.9605 77
-4.3969 -4.26565 1.97105 43
-4.37171 -4.2486 1.9818 60
-4.36801 -4.2524 1.99239 13
-4.38949 -4.27326 2.00296 58
-9.90707 -9.65831 2.02642 3
-4.39788 -4.25006 2.02413 66
-4.35504 -4.24403 2.03462 62
nan nan nan nan
nan nan nan nan
-4.38313 -4.25795 2.06656 73
-4.37858 -4.26242 2.07718 35
-4.38561 -4.26924 2.08792 68
-4.3853 -4.27636 2.09863 61
-4.4089 -4.25898 2.10928 53
-4.38306 -4.27111 2.11978 69
-4.41866 -4.27729 2.13098 65
nan nan nan nan
nan nan nan nan
-4.37396 -4.25767 2.16186 70
-4.39597 -4.27756 2.17328 11
-4.36973 -4.26094 2.18304 35
-4.3788 -4.22961 2.1931 45
-4.37087 -4.25896 2.20422 68
-4.38836 -4.2477 2.21494 34
-4.3603 -4.25456 2.22504 84
-4.37282 -4.25482 2.24656 82
-4.41209 -4.29893 2.27035 10
-4.35858 -4.24524 2.2882 76
nan nan nan nan
-4.42794 -4.28101 2.38813 70
nan nan nan nan
-4.3827 -4.25871 2.65753 71
-9.78767 -9.51988 3.83141 11
-7.12641 -6.94446 3.76687 10
-5.5059 -5.31625 3.70405 20
-4.28723 -4.17439 3.71852 40
-1.72868 -1.67027 0.953518 9
-1.80858 -1.75597 1.17235 6
-2.11735 -2.0456 1.22669 11
-2.64057 -2.56714 1.19666 4
-4.49401 -4.33919 0.834895 40
-4.44554 -4.28586 1.00307 56
-4.45935 -4.3048 1.12041 88
-4.45666 -4.30489 1.21813 58
-4.47351 -4.31489 1.29229 52
-4.40023 -4.26333 1.35631 83
-4.52047 -4.35832 1.37311 53
-4.44919 -4.29407 1.4207 84
-4.44293 -4.29089 1.45487 75
-4.3982 -4.26098 1.48103 72
-4.39211 -4.26244 1.5027 58
-4.40543 -4.24408 1.52429 52
-4.39509 -4.24293 1.54629 68
-4.41822 -4.27861 1.56464 71
-4.47286 -4.33894 1.58163 47
-4.41788 -4.25433 1.60859 93
-4.43245 -4.27725 1.62837 79
-4.40784 -4.27575 1.65093 41
-4.40937 -4.27567 1.67224 86
-4.40633 -4.25182 1.69454 56
-4.42873 -4.27339 1.71437 73
-4.42259 -4.28829 1.73554 77
-4.46622 -4.33047 1.75451 78
-4.42425 -4.26738 1.77882 56
-4.42923 -4.27063 1.79998 74
-4.42168 -4.25736 1.81112 94
-4.38908 -4.25556 1.82256 75
-4.40473 -4.24692 1.83299 70
-4.3758 -4.24116 1.8443 92
-4.40945 -4.24989 1.8541 62
-4.40178 -4.24394 1.86496 51
-4.40698 -4.25338 1.87536 87
-4.41013 -4.25046 1.88598 57
-4.41253 -4.24828 1.89766 66
-4.4093 -4.2734 1.90704 71
-4.40615 -4.24802 1.91793 64
-4.403 -4.26574 1.92846 63
-4.41066 -4.25079 1.93912 63
-4.40288 -4.24474 1.94984 65
-4.40437 -4.2506 1.96042 67
-4.40816 -4.24681 1.97103 66
-4.4045 -4.25067 1.98166 68
-4.41878 -4.27187 1.99225 73
-4.42236 -4.27529 2.00291 75
-4.41064 -4.27287 2.01358 98
-4.44153 -4.2624 2.02422 84
-4.41651 -4.27402 2.03491 82
-4.41913 -4.24971 2.04543 88
-4.40819 -4.24657 2.05705 78
-4.40517 -4.24957 2.06662 94
-4.40062 -4.25406 2.07725 73
-4.40049 -4.2539 2.08787 74
-4.4038 -4.2645 2.09866 95
-4.42014 -4.2401 2.10914 84
-4.39795 -4.25578 2.11974 59
-4.41555 -4.24452 2.13041 84
-4.39834 -4.26206 2.1411 66
-4.41218 -4.25458 2.15181 80
-4.42115 -4.27363 2.16298 76
-4.42526 -4.27607 2.17379 72
-4.41692 -4.27693 2.18433 96
-4.44762 -4.26621 2.1954 66
-4.4252 -4.28192 2.20599 94
-4.43199 -4.26006 2.21628 93
-4.40384 -4.26713 2.22646 94
-4.40563 -4.25688 2.24751 94
-4.40912 -4.26614 2.26921 89
-4.3985 -4.25431 2.2898 90
-4.39129 -4.25322 2.31079 94
-4.41049 -4.2344 2.38526 51
-4.37258 -4.21977 2.48891 10
-4.38326 -4.22956 2.65534 49
-9.78527 -9.45117 3.82466 11
-7.14716 -6.91605 3.76592 11
-5.52451 -5.29693 3.70399 17
-4.2915 -4.14931 3.71432 39
-1.73445 -1.66427 0.953499 9
-1.82831 -1.76284 1.16598 6
-2.13491 -2.04825 1.2228 20
nan nan nan nan
-4.47362 -4.2895 0.844091 98
-4.4141 -4.22598 1.01347 75
-4.44573 -4.26184 1.12603 94
-4.43941 -4.25844 1.22377 50
-4.44546 -4.25805 1.2991 94
-4.42938 -4.26176 1.35415 62
-4.44216 -4.25314 1.38612 70
-4.44257 -4.25786 1.42348 58
-4.42551 -4.24436 1.45882 69
-4.4202 -4.25253 1.48013 63
-4.42847 -4.26785 1.50019 78
-4.43459 -4.24249 1.52267 88
-4.42424 -4.24139 1.54474 61
-4.42591 -4.25627 1.56531 94
-4.42685 -4.26452 1.58736 59
-4.43989 -4.2458 1.6079 56
-4.42931 -4.2445 1.62985 79
-4.41912 -4.25689 1.65117 56
-4.42064 -4.25681 1.67246 94
-4.42473 -4.23989 1.69423 60
-4.41836 -4.23373 1.71597 93
-4.40872 -4.24513 1.73724 50
-4.41648 -4.25253 1.75808 91
-4.42107 -4.23464 1.77969 66
-4.42606 -4.23787 1.80077 68
-4.4365 -4.24191 1.81107 73
-4.4111 -4.24715 1.82222 63
-4.42674 -4.23844 1.83266 75
-4.423 -4.25705 1.84307 78
-4.42786 -4.23794 1.85393 38
-4.42739 -4.23893 1.86457 73
-4.4254 -4.24144 1.87521 54
-4.42494 -4.23505 1.88593 95
-4.43094 -4.23632 1.89753 69
-4.41337 -4.24759 1.90723 94
-4.42456 -4.23608 1.91782 14
-4.42506 -4.25728 1.92829 70
-4.43268 -4.24229 1.93896 41
-4.42849 -4.23972 1.94966 74
-4.43 -4.24559 1.96027 40
-4.43379 -4.24177 1.9709 79
-4.43014 -4.24565 1.98156 69
-4.42284 -4.24604 1.99223 69
-4.43004 -4.25291 2.00286 64
-4.43274 -4.26438 2.01355 74
-4.44915 -4.23997 2.02414 84
-4.4278 -4.25512 2.03484 72
-4.44478 -4.24462 2.04548 72
-4.43744 -4.24498 2.05718 77
-4.43442 -4.248 2.06678 73
-4.42988 -4.25252 2.07745 84
-4.42975 -4.25236 2.0881 62
-4.43308 -4.26295 2.09892 95
-4.44938 -4.23844 2.10944 93
-4.42719 -4.25426 2.12007 60
