# .PCD v0.7 - Point Cloud Data file format
VERSION 0.7
FIELDS x y z intensity
SIZE 4 4 4 4
TYPE F F F F
COUNT 1 1 1 1
WIDTH 1740
HEIGHT 1
VIEWPOINT 0 0 0 1 0 0 0
POINTS 1740
DATA ascii
-5.04773 -3.28228 1.99828 11
-5.04843 -3.2902 2.00876 10
-5.06396 -3.26621 2.01905 11
-5.05031 -3.28738 2.02965 11
-5.06064 -3.27147 2.04 9
-5.05357 -3.2731 2.05149 9
-5.05543 -3.27927 2.06096 10
-5.04771 -3.28173 2.0714 9
-5.04338 -3.27887 2.08177 10
-5.03614 -3.28038 2.09216 8
-5.05573 -3.25905 2.10251 10
-5.03721 -3.27827 2.11301 7
-5.03537 -3.2533 2.12302 5
-5.03051 -3.27882 2.13378 8
-5.04672 -3.27179 2.14434 8
-5.03411 -3.27232 2.15457 8
-5.03861 -3.27395 2.16511 11
-5.03488 -3.27898 2.17557 9
-5.05014 -3.25487 2.18583 11
-5.03989 -3.27944 2.19657 10
-5.04214 -3.25709 2.20654 6
-5.0455 -3.28802 2.21781 10
-5.05364 -3.28318 2.23885 8
-5.03797 -3.27791 2.25914 9
-5.05473 -3.28727 2.28092 8
-5.05171 -3.29023 2.30186 8
-5.05443 -3.26012 2.37428 6
-5.04837 -3.2743 2.47944 9
-5.0279 -3.2599 2.63999 6
-4.58552 -2.97824 2.72825 63
-5.07519 -3.29769 3.0687 33
-5.09588 -3.27762 3.34299 36
-4.44841 -2.88637 3.51766 34
nan nan nan nan
-3.87838 -2.51955 0.464491 9
-4.60716 -2.97434 0.543625 38
-4.98244 -3.23786 0.691945 6
-5.07886 -3.27758 0.868006 5
-5.04129 -3.24732 1.02725 5
-5.05842 -3.26255 1.14116 5
-5.02241 -3.24117 1.24121 4
-5.08245 -3.27441 1.30692 6
-4.93815 -3.19701 1.37757 4
-4.74783 -3.05736 1.4324 3
-4.80794 -3.0988 1.46004 3
-4.97259 -3.20745 1.47331 5
-5.04018 -3.26217 1.48656 10
-4.99691 -3.24029 1.51157 5
-4.99782 -3.21458 1.53329 4
-4.9582 -3.19636 1.55737 5
-4.94189 -3.1968 1.57897 6
-4.86489 -3.15303 1.60663 5
-4.91557 -3.15984 1.62267 4
-4.75823 -3.0657 1.65444 4
-4.94386 -3.20361 1.66072 5
-4.86563 -3.15175 1.68637 5
-4.9291 -3.17527 1.70305 5
-4.8083 -3.09741 1.73036 5
-4.94822 -3.20464 1.74249 8
-5.07469 -3.28639 1.75679 8
-5.04636 -3.24905 1.77937 11
-5.07288 -3.26479 1.79917 8
-5.07968 -3.26411 1.80945 9
-5.06854 -3.28193 1.82005 10
-5.08211 -3.27058 1.83028 10
-5.08212 -3.28936 1.84058 9
-5.0916 -3.27517 1.85099 10
-5.08715 -3.2735 1.86162 9
-5.08151 -3.27358 1.87224 9
-5.08824 -3.27284 1.8826 8
-5.09437 -3.27295 1.89404 9
-5.07943 -3.28714 1.9037 8
-5.08812 -3.27385 1.9141 9
-5.08858 -3.29169 1.92455 9
-5.09737 -3.2783 1.93497 9
-5.09279 -3.27655 1.94554 10
-5.09123 -3.27926 1.95607 9
-5.09421 -3.27483 1.96654 10
-5.09142 -3.27927 1.97708 10
-5.08859 -3.28367 1.98762 9
-5.08857 -3.28361 1.99812 10
-5.08928 -3.29155 2.00867 9
-5.10901 -3.2701 2.01903 10
-5.09115 -3.28874 2.02968 10
-5.10149 -3.27269 2.04009 10
-5.09441 -3.27437 2.05165 11
-5.09207 -3.27784 2.06113 10
-5.08854 -3.28306 2.07167 8
-5.08001 -3.2775 2.08204 10
-5.07697 -3.28176 2.09256 8
-5.10075 -3.26296 2.10305 10
-5.08222 -3.28238 2.11362 9
-5.08036 -3.25729 2.1237 9
-5.0713 -3.28024 2.13442 8
-5.09174 -3.27579 2.14516 9
-5.07912 -3.27639 2.15546 8
-5.07523 -3.27258 2.1658 9
-5.0757 -3.28035 2.17646 9
-5.09515 -3.25878 2.18692 11
-5.0807 -3.28081 2.19757 9
-5.08714 -3.26105 2.20778 6
-5.08633 -3.28938 2.21894 9
-5.09868 -3.28716 2.2403 7
-5.08298 -3.28196 2.26073 8
-5.09555 -3.28857 2.28241 8
-5.08834 -3.28883 2.30323 6
-5.09101 -3.25859 2.37601 6
-5.07236 -3.26473 2.48051 8
-5.056 -3.25307 2.64199 6
-4.58342 -2.95414 2.72616 55
-5.12395 -3.30394 3.07642 31
-5.13615 -3.27815 3.35046 29
-4.45853 -2.87077 3.51755 22
nan nan nan nan
-3.88707 -2.50606 0.464397 8
-4.61337 -2.9557 0.544807 38
-5.03468 -3.24694 0.680984 6
-5.10675 -3.27049 0.864168 5
-5.08163 -3.24836 1.02146 5
-5.09474 -3.26093 1.13676 5
-5.06289 -3.24238 1.23664 5
-5.12729 -3.27809 1.30219 6
-4.9869 -3.20395 1.37266 4
-4.76683 -3.04615 1.43127 4
nan nan nan nan
-4.99631 -3.19815 1.47184 5
-5.09343 -3.27149 1.48212 10
-5.03331 -3.23902 1.50896 5
-5.05098 -3.22397 1.5292 5
-5.0029 -3.20056 1.55421 5
-4.95719 -3.18224 1.57849 6
-4.86325 -3.12796 1.60754 4
-4.91814 -3.13731 1.6232 4
-4.72684 -3.0222 1.65742 4
-4.95919 -3.18905 1.6603 5
-4.81777 -3.09701 1.6901 5
-4.94855 -3.16344 1.70242 5
-4.77278 -3.05102 1.73288 5
-4.97197 -3.19546 1.7417 8
-5.11134 -3.28486 1.75544 8
-5.08291 -3.24758 1.77812 8
-5.11371 -3.26591 1.79785 6
-5.12052 -3.26517 1.80819 8
-5.11359 -3.28584 1.8187 8
-5.12298 -3.27164 1.82915 9
-5.12301 -3.2905 1.83951 8
-5.13669 -3.27892 1.84985 9
-5.13223 -3.27727 1.86055 8
-5.12659 -3.27738 1.87124 8
-5.13333 -3.27658 1.88168 8
-5.13948 -3.27665 1.89319 8
-5.12452 -3.291 1.90291 8
-5.13745 -3.28028 1.9133 8
-5.13371 -3.2955 1.9239 8
-5.14248 -3.28203 1.93439 7
-5.14211 -3.28299 1.94498 8
-5.13634 -3.28302 1.95563 9
-5.13932 -3.27855 1.96617 8
-5.13654 -3.28302 1.97678 9
-5.1337 -3.28745 1.98739 8
-5.1337 -3.28738 1.99796 8
-5.13441 -3.29535 2.00858 9
-5.14993 -3.27103 2.01899 9
-5.13626 -3.29255 2.02973 9
-5.1424 -3.27367 2.04018 9
-5.1311 -3.2727 2.05176 8
-5.13298 -3.27889 2.06134 9
-5.13367 -3.28683 2.072 8
-5.12511 -3.2813 2.08244 9
-5.12207 -3.28559 2.09303 7
-5.14165 -3.2639 2.1035 8
-5.1231 -3.28351 2.11413 6
-5.12122 -3.25833 2.12427 5
-5.10797 -3.27872 2.13495 10
-5.12843 -3.27413 2.14574 7
-5.12 -3.2775 2.15622 7
-5.1161 -3.27368 2.16662 9
-5.12079 -3.28418 2.17748 6
-5.14024 -3.26241 2.18802 8
-5.12578 -3.28464 2.19874 8
-5.13222 -3.26473 2.20901 6
-5.1104 -3.27969 2.21935 6
-5.11855 -3.27472 2.24057 7
-5.12808 -3.28572 2.26231 6
-5.11962 -3.27884 2.28298 6
-5.11241 -3.27913 2.30385 6
-5.12764 -3.25685 2.37774 6
-5.11315 -3.26577 2.48316 6
-5.07993 -3.2434 2.64346 6
-4.58538 -2.93277 2.72472 52
-5.15624 -3.29927 3.08065 30
-5.17649 -3.27843 3.35793 36
-4.47265 -2.85771 3.51882 34
nan nan nan nan
-3.8997 -2.4951 0.462711 8
-4.6195 -2.93705 0.545988 36
-5.06236 -3.23991 0.676524 5
-5.13051 -3.26061 0.861256 4
-5.09289 -3.23065 1.02134 5
-5.12275 -3.25378 1.13378 5
-4.9988 -3.17684 1.24797 4
-5.16802 -3.27882 1.29803 6
-5.1238 -3.26671 1.35656 6
-5.03373 -3.19189 1.40026 4
-5.13603 -3.26012 1.42505 6
-4.97379 -3.15935 1.47531 4
-5.13 -3.26978 1.47941 6
-5.11178 -3.26432 1.50221 6
-5.10007 -3.23036 1.52551 5
-5.02243 -3.18844 1.55333 8
-5.10286 -3.25064 1.56678 8
-4.81523 -3.07345 1.61223 4
-4.90796 -3.10679 1.62472 4
-4.72049 -2.99501 1.65854 4
-4.97027 -3.17174 1.66018 5
-4.80748 -3.06678 1.69136 5
-4.96798 -3.15152 1.70178 5
-4.78338 -3.03436 1.73276 5
-4.98307 -3.1781 1.74158 8
-5.15226 -3.2858 1.75388 6
-5.15748 -3.26999 1.77518 10
-5.15883 -3.26945 1.79636 6
-5.16566 -3.26867 1.80677 6
-5.15452 -3.28678 1.81751 11
-5.16814 -3.27514 1.82786 6
-5.16397 -3.29139 1.83844 6
-5.17764 -3.27972 1.84883 8
-5.1774 -3.28076 1.85948 6
-5.17175 -3.2809 1.87024 5
-5.17851 -3.28005 1.88074 6
-5.18468 -3.28008 1.89233 6
-5.17392 -3.29727 1.90203 6
-5.18265 -3.28372 1.91258 8
-5.17892 -3.29903 1.92325 6
-5.1919 -3.28816 1.93375 8
-5.18731 -3.28644 1.94447 7
-5.18154 -3.28651 1.95518 5
-5.18453 -3.28199 1.9658 6
-5.18174 -3.28649 1.97648 8
-5.18313 -3.29364 1.98714 7
-5.18313 -3.29356 1.99779 9
-5.18385 -3.30157 2.00849 8
-5.19936 -3.27705 2.01898 9
-5.18568 -3.29877 2.0298 9
-5.19183 -3.27974 2.04032 9
-5.18474 -3.28151 2.05203 10
-5.18663 -3.28772 2.06169 9
-5.1831 -3.29302 2.07238 7
-5.17453 -3.2875 2.0829 9
-5.1757 -3.29451 2.09364 8
-5.19107 -3.26994 2.10411 8
-5.17249 -3.28977 2.11483 8
-5.17061 -3.26446 2.12505 5
-5.15733 -3.28504 2.1358 6
-5.17362 -3.2776 2.14656 1
-5.16518 -3.28103 2.1571 7
-5.16549 -3.2799 2.16771 9
-5.17019 -3.2904 2.17865 6
-5.18965 -3.26844 2.18926 9
-5.17516 -3.29087 2.20006 6
-5.18585 -3.27348 2.21058 6
-5.16819 -3.29136 2.22119 6
-5.17215 -3.28359 2.2424 6
-5.17748 -3.29189 2.26411 6
-5.16898 -3.28507 2.28493 6
-5.16176 -3.28539 2.30596 6
-5.17276 -3.26021 2.38009 5
-5.15823 -3.26922 2.48621 6
-5.12485 -3.24691 2.64758 6
-4.58725 -2.91141 2.72329 45
-5.1844 -3.29178 3.08401 32
-5.24581 -3.29666 3.37299 31
-4.49079 -2.84717 3.52148 37
nan nan nan nan
-3.9003 -2.47646 0.465795 8
-4.62556 -2.9184 0.547167 33
-5.07357 -3.22228 0.676399 5
-5.11272 -3.22437 0.86763 4
-5.10408 -3.21289 1.02121 5
-5.15077 -3.24648 1.1308 5
-5.0224 -3.16734 1.24593 4
-5.20882 -3.27932 1.29387 6
-5.17716 -3.2754 1.35111 9
-5.17957 -3.25904 1.38393 6
-5.16419 -3.25282 1.42302 4
-5.15747 -3.25088 1.45677 4
-5.15398 -3.25986 1.47799 5
-5.13575 -3.25447 1.50084 6
-5.15769 -3.24176 1.52101 6
-5.10943 -3.21875 1.54637 5
-5.17739 -3.27279 1.56122 8
-4.79639 -3.03798 1.61452 5
-4.92298 -3.09231 1.62427 4
-4.70556 -2.96257 1.66028 4
-4.98551 -3.15706 1.65977 5
-4.80125 -3.03932 1.69234 5
-5.00005 -3.14748 1.70037 5
-4.80238 -3.02298 1.73216 5
-5.00679 -3.16871 1.74079 6
-5.18057 -3.27848 1.75293 5
-5.21536 -3.28127 1.77298 8
-5.19981 -3.27006 1.79504 5
-5.21089 -3.27188 1.80535 8
-5.19552 -3.28748 1.81631 6
-5.20915 -3.2757 1.82672 5
-5.205 -3.29204 1.83736 5
-5.22289 -3.28294 1.84769 6
-5.22265 -3.28398 1.8584 6
-5.217 -3.28415 1.86924 6
-5.21955 -3.28059 1.87991 6
-5.22573 -3.28057 1.89156 6
-5.21498 -3.2979 1.90132 6
-5.22371 -3.28423 1.91193 6
-5.21999 -3.29962 1.92266 6
-5.23296 -3.28867 1.93322 6
-5.22837 -3.28696 1.944 7
-5.22682 -3.28972 1.95474 6
-5.22558 -3.2825 1.96545 7
-5.22703 -3.28969 1.97617 8
-5.22844 -3.29686 1.9869 7
-5.22844 -3.29678 1.99763 8
-5.22917 -3.3048 2.00839 6
-5.24891 -3.28277 2.01896 9
-5.23098 -3.30202 2.02984 9
-5.23713 -3.28286 2.04043 6
-5.23427 -3.28733 2.05226 9
-5.23193 -3.29088 2.06194 8
-5.2284 -3.29623 2.0727 6
-5.22405 -3.2934 2.08336 8
-5.221 -3.29776 2.09411 6
-5.24059 -3.27567 2.10473 8
-5.21776 -3.29305 2.11543 6
-5.21586 -3.26763 2.12572 5
-5.20257 -3.28839 2.13654 6
-5.21889 -3.2808 2.14737 6
-5.21466 -3.28696 2.15811 7
-5.21076 -3.28314 2.16866 8
-5.21548 -3.29366 2.17967 6
-5.23916 -3.27416 2.1905 7
-5.22465 -3.2968 2.20139 6
-5.22689 -3.27393 2.21164 6
-5.21344 -3.29465 2.22249 6
-5.21741 -3.2868 2.24384 6
-5.21431 -3.28977 2.26526 6
-5.21422 -3.28832 2.28665 6
-5.20698 -3.28868 2.30782 6
-5.21797 -3.2633 2.38243 5
-5.20761 -3.27506 2.48964 6
-5.17828 -3.25543 2.65276 5
-4.59742 -2.89535 2.72317 42
-5.27087 -3.32089 3.09957 34
-5.28634 -3.29636 3.38046 34
-4.49671 -2.82886 3.51998 40
nan nan nan nan
-3.90884 -2.4629 0.465698 8
-4.63564 -2.9023 0.547051 24
-5.09298 -3.20981 0.674105 5
-5.18633 -3.24569 0.85357 4
-5.12358 -3.20033 1.01947 5
-5.15783 -3.2259 1.13138 5
-5.00816 -3.13404 1.24963 4
-5.26653 -3.29009 1.28741 5
-5.218 -3.27584 1.34725 8
-5.22042 -3.2594 1.38025 5
-5.1797 -3.23744 1.42242 4
-5.09276 -3.18535 1.46473 4
-5.16108 -3.23923 1.47829 5
-5.15549 -3.24185 1.49988 5
-5.19854 -3.24224 1.5181 5
-5.18402 -3.24057 1.54054 5
-5.22679 -3.27855 1.55783 9
-4.7647 -2.99472 1.61784 5
-4.94219 -3.08041 1.62349 4
-4.72008 -2.94879 1.65985 4
-4.98803 -3.13435 1.66023 5
-4.78221 -3.00399 1.69414 5
-5.02369 -3.13797 1.69947 5
-4.76206 -2.97446 1.73493 5
-5.0178 -3.15123 1.74066 6
-5.20043 -3.2657 1.75239 5
-5.25643 -3.28159 1.77153 6
-5.23662 -3.26778 1.79389 6
-5.24772 -3.26954 1.80425 5
-5.23658 -3.28793 1.8151 6
-5.25023 -3.27602 1.82558 5
-5.24186 -3.28979 1.83642 5
-5.26398 -3.28323 1.84667 6
-5.26375 -3.28427 1.85744 6
-5.25386 -3.28183 1.86845 6
-5.26489 -3.28353 1.87897 6
-5.27109 -3.28346 1.8907 6
-5.2561 -3.29827 1.90061 6
-5.26908 -3.28714 1.9112 6
-5.26537 -3.30262 1.922 6
-5.27833 -3.29157 1.93263 6
-5.27797 -3.29253 1.94343 6
-5.27219 -3.29266 1.95429 6
-5.27519 -3.28805 1.96504 6
-5.27241 -3.29261 1.97586 6
-5.27382 -3.2998 1.98666 6
-5.27383 -3.29971 1.99746 6
-5.27034 -3.30511 2.00829 6
-5.29006 -3.2829 2.01892 8
-5.27636 -3.30499 2.02988 6
-5.27828 -3.28305 2.04051 5
-5.27541 -3.28756 2.05241 7
-5.27732 -3.29378 2.06219 6
-5.26955 -3.29651 2.07296 6
-5.26519 -3.29369 2.08368 6
-5.26215 -3.29808 2.09449 6
-5.27748 -3.27318 2.10509 6
-5.25887 -3.29341 2.11594 6
-5.25695 -3.26788 2.12628 6
-5.24366 -3.2888 2.13717 5
-5.26 -3.28107 2.14806 6
-5.25578 -3.28728 2.15886 6
-5.25611 -3.28611 2.16961 8
-5.26084 -3.29664 2.18069 6
-5.28029 -3.2743 2.19143 7
-5.26578 -3.29712 2.20238 6
-5.27224 -3.27677 2.21287 6
-5.25455 -3.29501 2.22361 6
-5.25429 -3.28445 2.24488 6
-5.25543 -3.29008 2.26662 6
-5.24684 -3.28335 2.28767 6
-5.24383 -3.28639 2.30918 6
-5.26327 -3.26612 2.38477 5
-5.25286 -3.27795 2.49268 5
-5.22761 -3.26099 2.65741 5
-4.59913 -2.87401 2.72174 40
-5.30335 -3.31549 3.10379 42
-5.33939 -3.30352 3.39117 39
-4.50664 -2.81308 3.51987 38
nan nan nan nan
-3.91734 -2.44931 0.4656 8
-4.63336 -2.87853 0.550818 13
-5.12064 -3.20242 0.669639 5
-5.22677 -3.24578 0.846936 4
-5.13467 -3.18247 1.01934 4
-5.21106 -3.23402 1.12412 5
-5.08644 -3.15844 1.23931 4
-5.3075 -3.29004 1.28324 5
-5.26735 -3.28128 1.34233 8
-5.27403 -3.26737 1.37505 5
-5.22476 -3.24038 1.41847 4
-5.13767 -3.18859 1.46101 4
-5.18924 -3.23175 1.47643 5
-5.19212 -3.23967 1.49726 5
-5.22675 -3.23459 1.51638 5
-5.21646 -3.23561 1.53851 5
-5.25511 -3.27085 1.55625 8
-4.75393 -2.9649 1.61944 5
-4.86381 -3.00801 1.63024 4
-4.70488 -2.91653 1.6616 4
-4.97774 -3.10373 1.66157 5
-4.75027 -2.96091 1.69678 5
-5.03035 -3.1178 1.6996 5
-4.78089 -2.9631 1.73432 4
-5.07116 -3.16012 1.73831 6
-5.22875 -3.2581 1.75143 5
-5.30605 -3.28694 1.7697 6
-5.28197 -3.27054 1.79239 5
-5.29309 -3.27223 1.80282 5
-5.28196 -3.29077 1.81375 6
-5.29563 -3.27871 1.82429 6
-5.28726 -3.2926 1.8352 5
-5.30514 -3.28328 1.84565 6
-5.30492 -3.28432 1.85648 6
-5.29501 -3.28192 1.86755 6
-5.30606 -3.28355 1.87813 6
-5.31228 -3.28345 1.88993 6
-5.29728 -3.2984 1.89989 6
-5.30603 -3.28451 1.91062 6
-5.30658 -3.3027 1.92141 6
-5.31528 -3.28893 1.93215 6
-5.31068 -3.28726 1.94306 6
-5.30914 -3.29005 1.95392 6
-5.31214 -3.2854 1.96472 6
-5.30937 -3.28999 1.97559 6
-5.3108 -3.29719 1.98645 6
-5.31081 -3.2971 1.9973 6
-5.31157 -3.30517 2.00818 6
-5.33128 -3.28279 2.01887 6
-5.31758 -3.30504 2.0299 6
-5.32374 -3.28562 2.04061 5
-5.32087 -3.29016 2.05259 5
-5.31855 -3.29376 2.06239 6
-5.31077 -3.29654 2.07322 5
-5.3064 -3.29373 2.084 6
-5.29911 -3.29552 2.0948 5
-5.29313 -3.25736 2.10504 6
-5.27459 -3.27767 2.1159 5
-5.2896 -3.26264 2.12665 4
-5.25936 -3.27311 2.13715 5
-5.27993 -3.26795 2.14816 6
-5.29272 -3.28472 2.15948 6
-5.30154 -3.28881 2.17055 6
-5.30205 -3.29671 2.18156 6
-5.32148 -3.27419 2.19236 8
-5.31121 -3.29982 2.20354 6
-5.31768 -3.27933 2.21409 5
-5.29149 -3.29248 2.22455 5
-5.29545 -3.2845 2.24612 6
-5.27963 -3.27961 2.26713 5
-5.27525 -3.27555 2.28846 5
-5.28921 -3.28916 2.31103 5
-5.2959 -3.2608 2.38618 5
-5.31515 -3.29106 2.4973 5
-5.28972 -3.27409 2.66365 5
-4.59653 -2.85008 2.71964 40
-5.37769 -3.33587 3.11672 41
-5.38423 -3.30525 3.39972 30
-4.51651 -2.79727 3.51975 40
nan nan nan nan
-3.92578 -2.43569 0.465501 8
-4.6433 -2.8624 0.5507 10
-5.18151 -3.21544 0.656496 5
-5.27564 -3.25079 0.838442 4
-5.17091 -3.1801 1.01435 4
-5.25597 -3.23662 1.11827 5
-5.10161 -3.1433 1.23855 4
-5.3316 -3.27933 1.28138 5
-5.30835 -3.28119 1.33846 8
-5.26418 -3.23595 1.37745 5
-5.25296 -3.23259 1.41644 4
-5.24626 -3.23073 1.45054 4
-5.23013 -3.23196 1.47328 5
-5.23303 -3.23989 1.49423 5
-5.27195 -3.23723 1.51307 5
-5.25317 -3.23309 1.5361 5
-5.29618 -3.27084 1.55358 6
-4.73877 -2.93258 1.62139 5
-4.91252 -3.01453 1.62717 4
-4.72776 -2.90796 1.66055 5
-4.9673 -3.07323 1.6629 5
-4.73932 -2.93122 1.69803 4
-5.04119 -3.10024 1.69947 5
-4.76567 -2.9307 1.73565 4
-5.10763 -3.15816 1.73684 6
-5.27409 -3.26084 1.74965 5
-5.35152 -3.28935 1.76806 6
-5.32314 -3.27041 1.79106 5
-5.33429 -3.27204 1.80154 5
-5.32316 -3.29071 1.81254 5
-5.33259 -3.27591 1.82329 5
-5.31997 -3.28725 1.83439 5
-5.3421 -3.28046 1.84475 5
-5.34189 -3.2815 1.85563 5
-5.32346 -3.2739 1.86697 5
-5.33878 -3.2781 1.87749 5
-5.34501 -3.27796 1.88934 6
-5.33002 -3.29303 1.89934 5
-5.33876 -3.27905 1.91011 6
-5.33935 -3.29728 1.92094 6
-5.35228 -3.28608 1.93167 5
-5.34767 -3.28442 1.94263 6
-5.34188 -3.2846 1.95358 5
-5.34914 -3.28254 1.9644 6
-5.35064 -3.28978 1.9753 6
-5.34782 -3.29437 1.98623 6
-5.35209 -3.29689 1.99712 6
-5.35286 -3.30498 2.00808 6
-5.37256 -3.28243 2.01882 6
-5.36312 -3.30747 2.02993 6
-5.36502 -3.28531 2.04069 5
-5.3579 -3.28726 2.05269 5
-5.35983 -3.2935 2.06258 6
-5.35631 -3.29895 2.07354 5
-5.34342 -3.29091 2.08426 6
-5.33187 -3.29012 2.09503 5
-5.33007 -3.25451 2.10539 6
-5.30727 -3.27236 2.11622 5
-5.32228 -3.25721 2.12701 4
-5.29203 -3.26787 2.13756 5
-5.31261 -3.26257 2.14861 5
-5.3297 -3.28194 2.1601 5
-5.33428 -3.28337 2.17109 5
-5.33906 -3.29391 2.18228 5
-5.35847 -3.27123 2.19314 5
-5.34823 -3.297 2.20437 5
-5.35467 -3.2764 2.21497 5
-5.34972 -3.30287 2.22638 5
-5.35371 -3.29479 2.24814 5
-5.32509 -3.2821 2.2687 5
-5.33343 -3.28595 2.29086 5
-5.27517 -3.25493 2.30941 5
-5.34133 -3.2631 2.38851 5
-5.35636 -3.29073 2.49994 5
-5.33505 -3.2764 2.66776 5
-4.60226 -2.8314 2.71886 39
-5.42289 -3.33769 3.12355 27
-5.40414 -3.29146 3.40175 31
-4.52223 -2.77891 3.51826 45
nan nan nan nan
-3.93418 -2.42204 0.465401 8
-4.65319 -2.84624 0.550581 9
-5.22589 -3.21784 0.647687 5
-5.35393 -3.27345 0.823441 4
-5.18613 -3.16464 1.01341 4
-5.27141 -3.22088 1.11742 4
-5.12097 -3.13068 1.23714 4
-5.38113 -3.28402 1.27605 4
-5.35788 -3.28606 1.33353 6
-5.31788 -3.24347 1.37224 4
-5.16651 -3.15455 1.42726 4
-5.18949 -3.17087 1.4576 4
-5.34329 -3.27618 1.46277 6
-5.291 -3.25029 1.48953 5
-5.32149 -3.24219 1.50935 4
-5.26014 -3.21216 1.53635 5
-5.35432 -3.28101 1.54946 6
-4.7362 -2.90822 1.6223 5
-4.95281 -3.01556 1.62475 4
-4.64841 -2.83685 1.66694 4
-4.92267 -3.02196 1.66659 4
-4.7197 -2.89641 1.69984 4
-4.9923 -3.0462 1.70295 5
-4.73748 -2.89065 1.73769 4
-5.13139 -3.14816 1.73604 6
-5.31524 -3.26069 1.74808 5
-5.36722 -3.27327 1.76774 5
-5.35584 -3.26483 1.79006 5
-5.37128 -3.26899 1.80043 5
-5.36017 -3.2878 1.81148 5
-5.36959 -3.27288 1.82228 5
-5.36551 -3.28955 1.83316 5
-5.38338 -3.28003 1.84372 5
-5.38317 -3.28107 1.85467 5
-5.37324 -3.27876 1.86585 5
-5.38007 -3.27766 1.87664 5
-5.39058 -3.28008 1.88846 5
-5.37984 -3.29792 1.89845 5
-5.39287 -3.2864 1.90922 5
-5.39346 -3.30473 1.92014 5
-5.41066 -3.29602 1.9309 5
-5.40605 -3.29438 1.94195 6
-5.40452 -3.2972 1.95296 6
-5.40754 -3.29246 1.96391 6
-5.40904 -3.29972 1.97491 6
-5.40622 -3.30436 1.98594 6
-5.40197 -3.30164 1.99694 6
-5.40702 -3.31237 2.00797 6
-5.42245 -3.28701 2.01879 6
-5.40874 -3.30963 2.02996 5
-5.4149 -3.28994 2.04081 5
-5.4035 -3.28934 2.05287 5
-5.40545 -3.29559 2.06282 5
-5.40192 -3.30108 2.07385 5
-5.40181 -3.30089 2.08483 5
-5.38598 -3.29756 2.09563 5
-5.42688 -3.28774 2.10689 5
-5.33998 -3.26687 2.11654 5
-5.25672 -3.19188 2.12508 4
-5.31193 -3.2546 2.13764 5
-5.32824 -3.24661 2.14859 5
-5.35393 -3.27112 2.16034 5
-5.36278 -3.27514 2.17149 5
-5.36759 -3.28567 2.18272 5
-5.3955 -3.26806 2.19391 5
-5.38102 -3.29136 2.20503 5
-5.38317 -3.26806 2.21551 5
-5.38253 -3.29722 2.22713 5
-5.39504 -3.29429 2.24937 5
-5.38342 -3.29212 2.27091 5
-5.39174 -3.29598 2.29326 5
-5.38873 -3.29907 2.31522 5
-5.39538 -3.2703 2.39146 5
-5.37635 -3.27718 2.50059 5
-5.36771 -3.27066 2.67027 6
-4.61215 -2.81529 2.71874 39
-5.43877 -3.32127 3.12428 30
-5.46579 -3.30282 3.41462 30
-4.53197 -2.76305 3.51814 53
nan nan nan nan
-3.94657 -2.41083 0.463709 8
-4.66302 -2.83004 0.550461 9
-5.25368 -3.20981 0.643214 4
-5.36946 -3.25734 0.822373 4
-5.24351 -3.1747 1.00438 4
-5.25719 -3.1871 1.12157 4
-5.10215 -3.09482 1.24147 4
-5.40527 -3.27296 1.27418 4
-5.41176 -3.2932 1.32806 5
-5.3334 -3.22749 1.3716 4
-5.15618 -3.12361 1.42951 4
-5.21753 -3.16309 1.45566 4
-5.40999 -3.29117 1.45701 6
-5.34059 -3.25515 1.48566 5
-5.37539 -3.24942 1.50524 4
-5.3182 -3.22222 1.53203 4
-5.3998 -3.28303 1.54642 6
-4.72925 -2.88132 1.62356 5
-4.85228 -2.93115 1.63314 4
-4.67534 -2.83097 1.66558 4
-4.93743 -3.00737 1.66617 4
-4.7127 -2.86956 1.70082 4
-5.00716 -3.03136 1.70257 5
-4.71335 -2.85341 1.73949 4
-5.11246 -3.11207 1.73747 6
-5.33938 -3.24992 1.74732 5
-5.43416 -3.28818 1.76515 5
-5.40567 -3.2694 1.78839 5
-5.42971 -3.27865 1.79851 5
-5.41857 -3.29764 1.80966 5
-5.42803 -3.28256 1.82055 5
-5.42394 -3.29936 1.83153 5
-5.44182 -3.2897 1.84218 5
-5.44162 -3.29074 1.85322 5
-5.43167 -3.28848 1.8645 5
-5.43852 -3.28732 1.87539 5
-5.44906 -3.28966 1.88732 5
-5.43831 -3.3077 1.89739 5
-5.4471 -3.29342 1.90833 5
-5.44769 -3.31184 1.91934 5
-5.46062 -3.30042 1.93024 5
-5.46029 -3.30138 1.94132 5
-5.45448 -3.30163 1.95246 5
-5.45323 -3.29425 1.96352 5
-5.45902 -3.30412 1.97457 5
-5.4562 -3.30879 1.98568 5
-5.44767 -3.30349 1.99676 5
-5.44846 -3.31164 2.00786 5
-5.46816 -3.2887 2.01875 5
-5.45017 -3.30891 2.02997 5
-5.45204 -3.28651 2.04085 5
-5.44919 -3.29114 2.05304 5
-5.45115 -3.2974 2.06306 5
-5.44762 -3.30294 2.07415 5
-5.45179 -3.30533 2.08527 5
-5.44448 -3.30727 2.0963 5
-5.49401 -3.3023 2.10782 5
-5.40262 -3.27936 2.11749 5
-5.31921 -3.20448 2.12614 4
-5.37025 -3.2646 2.13869 4
-5.38233 -3.25384 2.14962 5
-5.40807 -3.27831 2.16146 5
-5.41695 -3.28228 2.17269 5
-5.42177 -3.29283 2.18401 5
-5.45399 -3.27754 2.19544 5
-5.44374 -3.30368 2.20682 5
-5.44591 -3.2802 2.2174 5
-5.43245 -3.30176 2.22859 5
-5.44071 -3.29613 2.25079 5
-5.44616 -3.30437 2.27332 5
-5.43738 -3.29787 2.29496 5
-5.4301 -3.29838 2.31682 5
-5.44954 -3.27717 2.39441 4
-5.42616 -3.28159 2.50401 5
-5.42593 -3.28017 2.67597 5
-4.60926 -2.79145 2.71664 40
-5.49248 -3.32775 3.13285 33
-5.52339 -3.31128 3.42641 36
-4.54167 -2.74715 3.51802 53
nan nan nan nan
-3.95894 -2.39956 0.462016 8
-4.66866 -2.81132 0.551634 8
-5.25643 -3.18646 0.645247 4
-5.38494 -3.24117 0.821304 4
-5.33908 -3.20727 0.988062 4
-5.25127 -3.15856 1.12429 4
-4.8452 -2.9159 1.28148 4
-5.42088 -3.25667 1.27347 4
-5.44872 -3.28974 1.32472 5
-5.3318 -3.20121 1.37298 4
-5.12438 -3.07996 1.43414 4
-5.32238 -3.20136 1.44563 4
-5.46834 -3.3006 1.45211 5
-5.39881 -3.26484 1.48096 4
-5.43795 -3.26145 1.50033 5
-5.3892 -3.23963 1.52657 4
-5.46245 -3.29509 1.54192 5
-4.71364 -2.84934 1.6255 5
-4.88386 -2.92705 1.63138 4
-4.65096 -2.79408 1.66794 5
-4.95642 -2.9953 1.66545 4
-4.70558 -2.84279 1.7018 5
-5.00486 -3.00616 1.70321 5
-4.68046 -2.81124 1.74178 5
-5.1361 -3.10197 1.73667 6
-5.4234 -3.27513 1.74368 4
-5.4927 -3.29751 1.76293 5
-5.46846 -3.28138 1.78619 5
-5.48398 -3.28537 1.79674 4
-5.47282 -3.30454 1.80798 5
-5.48231 -3.28929 1.81896 5
-5.47393 -3.30364 1.83016 4
-5.49183 -3.29385 1.84089 5
-5.49163 -3.2949 1.85201 4
-5.48167 -3.29268 1.86337 4
-5.48854 -3.29147 1.87433 4
-5.49482 -3.29118 1.88644 4
-5.48834 -3.31194 1.89649 4
-5.49715 -3.29752 1.90751 5
-5.49776 -3.31602 1.9186 4
-5.51497 -3.30708 1.92952 4
-5.51464 -3.30804 1.94069 5
-5.50882 -3.30833 1.95191 5
-5.51187 -3.30348 1.96303 5
-5.5091 -3.30821 1.97422 5
-5.50628 -3.31292 1.98541 5
-5.50202 -3.31022 1.99656 5
-5.49854 -3.31582 2.00775 5
-5.51823 -3.29267 2.01871 5
-5.50451 -3.31568 2.03004 5
-5.50639 -3.29314 2.041 5
-5.50353 -3.2978 2.05329 4
-5.5055 -3.30408 2.06338 5
-5.50197 -3.30966 2.07457 4
-5.49758 -3.30688 2.08565 5
-5.49026 -3.30887 2.09674 4
-5.51409 -3.28822 2.10784 4
-5.49967 -3.3121 2.11916 5
-5.4934 -3.28339 2.12977 5
-5.48006 -3.30522 2.14104 4
-5.49654 -3.29673 2.15228 5
-5.49231 -3.30319 2.16345 4
-5.49265 -3.30195 2.17457 5
-5.49319 -3.30996 2.18587 4
-5.52119 -3.29178 2.19726 5
-5.50661 -3.31561 2.2086 5
-5.51738 -3.29706 2.21962 5
-5.49957 -3.31632 2.23076 5
-5.4993 -3.30541 2.2528 5
-5.50477 -3.31364 2.27552 5
-5.49594 -3.3072 2.29735 5
-5.48864 -3.30776 2.3194 5
-5.5081 -3.28625 2.39766 4
-5.49745 -3.29851 2.50941 5
-5.47576 -3.2842 2.6806 5
-4.61051 -2.77022 2.7152 38
-5.52944 -3.32374 3.13793 33
-5.58952 -3.32438 3.44036 31
-4.53894 -2.7238 3.51376 54
nan nan nan nan
-3.95909 -2.38091 0.465095 8
-4.67837 -2.79507 0.551512 6
-5.28837 -3.18072 0.639685 4
-5.38773 -3.21736 0.823021 4
-5.3629 -3.19625 0.985493 4
-5.21548 -3.11234 1.13201 4
-4.82125 -2.87866 1.28645 4
-5.52177 -3.29115 1.26121 4
-5.50279 -3.29626 1.31925 5
-5.4113 -3.22331 1.36472 4
nan nan nan nan
-5.33777 -3.18535 1.44504 4
-5.50544 -3.29687 1.44938 5
-5.44434 -3.26649 1.4775 4
-5.47925 -3.26032 1.4974 5
-5.44755 -3.24891 1.52224 4
-5.49102 -3.28626 1.54033 5
-4.70214 -2.82008 1.6271 5
-4.90688 -2.91766 1.63026 4
-4.6478 -2.77018 1.66875 5
-4.94114 -2.9626 1.66708 5
-4.69403 -2.81355 1.70306 5
-5.13108 -3.05775 1.6961 4
-4.67736 -2.78723 1.74238 5
-5.15974 -3.09173 1.73586 6
-5.44336 -3.26133 1.74313 4
-5.54279 -3.30136 1.76109 5
-5.51851 -3.2853 1.7845 4
-5.53836 -3.29174 1.79497 4
-5.52719 -3.3111 1.8063 6
-5.54529 -3.3008 1.81707 4
-5.5369 -3.3153 1.82838 4
-5.55481 -3.30537 1.83921 5
-5.55032 -3.30386 1.85056 4
-5.54464 -3.30426 1.8619 5
-5.54724 -3.30042 1.87307 4
-5.55354 -3.30007 1.88528 5
-5.54276 -3.31844 1.89551 4
-5.55159 -3.30387 1.90661 5
-5.54792 -3.3199 1.91786 4
-5.56083 -3.30828 1.92891 5
-5.56051 -3.30925 1.94015 5
-5.55469 -3.30957 1.95145 5
-5.55774 -3.30467 1.96263 4
-5.55927 -3.312 1.97387 5
-5.55645 -3.31674 1.98513 4
-5.55219 -3.31404 1.99637 5
-5.553 -3.32226 2.00764 4
-5.5727 -3.29889 2.01868 4
-5.55467 -3.31955 2.03008 5
-5.56084 -3.29942 2.04115 4
-5.55798 -3.30413 2.05353 4
-5.55996 -3.31041 2.06371 5
-5.55214 -3.31349 2.07492 4
-5.55203 -3.31327 2.08614 5
-5.5447 -3.31531 2.09733 4
-5.56425 -3.29189 2.10842 4
-5.54553 -3.3134 2.11974 4
-5.54353 -3.28715 2.13052 4
-5.53446 -3.31174 2.14198 4
-5.55098 -3.30308 2.1533 4
-5.54675 -3.30959 2.16456 6
-5.54709 -3.30833 2.17576 5
-5.54763 -3.31638 2.18716 4
-5.57135 -3.29541 2.19848 6
-5.55676 -3.31944 2.2099 5
-5.56755 -3.30072 2.22099 4
-5.54972 -3.32019 2.23222 5
-5.54945 -3.30921 2.25441 5
-5.55064 -3.31487 2.27707 4
-5.54605 -3.31105 2.29928 5
-5.53446 -3.30907 2.32123 5
-5.54961 -3.28479 2.39967 4
-5.53465 -3.29458 2.51164 5
-5.51713 -3.28283 2.68416 4
-4.59889 -2.74141 2.71178 38
-5.61716 -3.3498 3.15346 33
-5.6474 -3.33208 3.45214 30
-4.53198 -2.69804 3.50812 54
nan nan nan nan
-3.96729 -2.36714 0.46499 8
-4.68802 -2.77879 0.551388 6
-5.29518 -3.1598 0.640631 4
-5.39886 -3.19859 0.822879 4
-5.44615 -3.22028 0.971594 4
nan nan nan nan
-5.02749 -2.97813 1.257 4
-5.54601 -3.27947 1.25933 4
-5.53987 -3.2923 1.3159 5
-5.42676 -3.20696 1.36407 4
-5.25703 -3.11012 1.42147 4
-5.3274 -3.15403 1.44715 4
-5.564 -3.30563 1.44447 5
-5.47281 -3.25768 1.47569 4
-5.51631 -3.25641 1.49487 5
-5.46741 -3.23498 1.52133 4
-5.53245 -3.28491 1.53764 5
-4.6862 -2.78838 1.62904 5
-4.87406 -2.87516 1.63342 4
-4.64025 -2.7438 1.66987 5
-4.93427 -2.93515 1.66812 5
-4.69522 -2.79206 1.70349 5
-5.1503 -3.04492 1.69545 4
-4.64406 -2.74548 1.74467 5
-5.3079 -3.15536 1.72857 5
-5.50195 -3.27037 1.74072 4
-5.58867 -3.30235 1.75943 4
-5.56865 -3.2889 1.78281 4
-5.59285 -3.29778 1.7932 4
-5.58167 -3.31732 1.80461 4
-5.59551 -3.3043 1.81562 4
-5.59141 -3.32147 1.82687 4
-5.58351 -3.29615 1.83855 5
-5.60915 -3.31246 1.8491 4
-5.59916 -3.31034 1.86065 4
-5.60177 -3.30646 1.87191 4
-5.60378 -3.30352 1.8843 4
-5.59729 -3.3246 1.89452 4
-5.60184 -3.30734 1.90578 4
-5.59387 -3.32092 1.91718 4
-5.61538 -3.3143 1.92819 5
-5.60646 -3.31018 1.93961 4
-5.60063 -3.31053 1.95097 5
-5.60799 -3.30812 1.9622 4
-5.60092 -3.31038 1.97356 5
-5.60241 -3.3177 1.98487 4
-5.60245 -3.31756 1.99617 5
-5.59897 -3.32326 2.00751 4
-5.61866 -3.2997 2.01863 5
-5.60492 -3.32311 2.03012 4
-5.6111 -3.30283 2.04126 4
-5.60394 -3.30503 2.05369 4
-5.60592 -3.31133 2.06393 4
-5.6024 -3.317 2.07528 4
-5.59799 -3.31424 2.08651 4
-5.59065 -3.31632 2.09776 4
-5.58864 -3.28004 2.10852 5
-5.56996 -3.30168 2.11986 4
-5.58513 -3.28553 2.13106 4
-5.55459 -3.2975 2.14205 4
-5.5754 -3.2913 2.1535 4
-5.59269 -3.31057 2.16542 4
-5.59303 -3.30929 2.17669 4
-5.59788 -3.31992 2.18829 4
-5.6173 -3.29619 2.19954 4
-5.60271 -3.32042 2.21103 4
-5.60919 -3.299 2.22203 4
-5.59136 -3.31865 2.23332 4
-5.58678 -3.30507 2.25543 5
-5.58798 -3.31073 2.2782 4
-5.59196 -3.31204 2.30097 4
-5.58035 -3.31011 2.32307 4
-5.60409 -3.29066 2.40261 4
-5.58048 -3.29549 2.51465 4
-5.60566 -3.30901 2.69356 4
-4.617 -2.73035 2.71298 39
-5.66701 -3.3527 3.16114 30
-5.7054 -3.33942 3.46392 33
-4.54145 -2.68215 3.508 47
nan nan nan nan
-3.97953 -2.35576 0.463295 6
-4.70594 -2.76737 0.548672 5
-5.50357 -3.25811 0.589488 4
-5.40993 -3.17978 0.822735 4
-5.47007 -3.20879 0.96902 4
-5.58257 -3.27904 1.07386 4
-5.17035 -3.0385 1.2371 4
-5.63022 -3.30285 1.24938 4
-5.57699 -3.28812 1.31255 4
nan nan nan nan
nan nan nan nan
-5.38558 -3.16319 1.44205 4
-5.59264 -3.29633 1.44259 5
-5.44979 -3.21833 1.47887 4
-5.64371 -3.30522 1.48397 4
-5.55173 -3.25881 1.51472 4
-5.56964 -3.28078 1.53532 4
-4.68299 -2.76443 1.62995 5
-4.86252 -2.84554 1.63493 4
-4.62826 -2.71497 1.6713 5
-5.06915 -2.99146 1.65948 6
-4.69632 -2.7706 1.70391 5
nan nan nan nan
-4.64067 -2.72168 1.74527 5
-5.40923 -3.19009 1.72373 5
-5.56067 -3.27905 1.7383 4
-5.64755 -3.31065 1.7572 5
-5.63182 -3.29977 1.78061 4
-5.63883 -3.29844 1.79174 4
-5.64918 -3.33082 1.80246 6
-5.65013 -3.31 1.81401 4
-5.64604 -3.32729 1.82535 4
-5.66827 -3.31963 1.83623 6
-5.65085 -3.31057 1.84811 4
-5.65378 -3.31609 1.85939 5
-5.64778 -3.3071 1.87094 4
-5.65411 -3.30666 1.88333 5
-5.63901 -3.3228 1.89378 6
-5.65649 -3.31302 1.90488 5
-5.64421 -3.32419 1.91643 5
-5.6571 -3.31238 1.92763 5
-5.65679 -3.31335 1.93902 5
-5.6639 -3.32133 1.95034 5
-5.66697 -3.31631 1.9617 4
-5.6642 -3.32116 1.97313 5
-5.64845 -3.31838 1.98461 6
-5.6528 -3.32077 1.99597 5
-5.65363 -3.32904 2.0074 4
-5.66902 -3.30274 2.01858 5
-5.64664 -3.32128 2.03011 5
-5.65281 -3.30088 2.04132 5
-5.65428 -3.30818 2.05389 4
-5.65627 -3.31449 2.0642 5
-5.64843 -3.31767 2.07557 6
-5.65265 -3.31998 2.087 5
-5.64961 -3.32465 2.09842 4
-5.66917 -3.3008 2.10967 5
-5.64608 -3.32025 2.12107 5
-5.64837 -3.29626 2.1321 5
-5.64791 -3.3263 2.14395 4
-5.6645 -3.31728 2.15545 5
-5.65163 -3.31885 2.16664 4
-5.65198 -3.31756 2.17801 5
-5.65684 -3.3282 2.18971 4
-5.68059 -3.30676 2.20121 5
-5.66595 -3.33125 2.21281 5
-5.66384 -3.30459 2.22356 5
-5.65028 -3.327 2.23512 5
-5.6457 -3.31335 2.25743 5
-5.65983 -3.3266 2.28103 5
-5.65516 -3.32287 2.30358 5
-5.66074 -3.33113 2.32688 5
-5.66299 -3.29871 2.40584 5
-5.67369 -3.32384 2.52201 5
-5.61292 -3.28689 2.69288 5
-4.60516 -2.70167 2.70955 36
-5.72118 -3.3578 3.16969 35
-5.75086 -3.33904 3.47244 50
-4.52598 -2.65164 3.4996 55
nan nan nan nan
-3.98765 -2.34192 0.463188 8
-4.71132 -2.74856 0.549841 5
-5.44748 -3.19943 0.606706 4
nan nan nan nan
-5.58777 -3.25181 0.948635 4
nan nan nan nan
-5.38223 -3.13788 1.207 4
-5.70606 -3.32067 1.24057 5
-5.63561 -3.29626 1.30653 4
nan nan nan nan
-4.625 -2.69233 1.49373 5
-5.59446 -3.25974 1.4212 4
-5.67289 -3.31703 1.43552 5
-5.63729 -3.30248 1.46169 4
-5.66381 -3.29053 1.48302 5
-5.6449 -3.28711 1.50733 4
-5.6284 -3.28901 1.53117 5
-4.67537 -2.73801 1.63121 5
-4.85515 -2.81854 1.63611 4
-4.62475 -2.69129 1.67211 5
-5.16139 -3.02165 1.65377 5
-4.69733 -2.74917 1.70434 5
nan nan nan nan
-4.62423 -2.69041 1.74659 5
-5.57124 -3.25945 1.71575 5
nan nan nan nan
-5.70656 -3.31858 1.75497 5
-5.67785 -3.3002 1.77908 5
-5.6892 -3.30132 1.79012 5
-5.69527 -3.33127 1.80108 6
-5.73512 -3.33293 1.81139 5
-5.70508 -3.3353 1.8237 4
-4.61266 -2.67903 1.8677 8
-5.71853 -3.32351 1.84641 5
-5.61779 -3.26868 1.86046 4
-5.71114 -3.31751 1.86957 5
-5.68723 -3.29945 1.88271 5
-5.70668 -3.33589 1.89254 6
-5.73287 -3.33091 1.90359 6
-5.69895 -3.32968 1.91561 5
-4.60546 -2.67427 1.9418 8
-5.71153 -3.31873 1.93837 6
-5.62792 -3.27387 1.95063 5
-5.70877 -3.31409 1.96132 6
-5.68008 -3.30389 1.97295 6
-5.7032 -3.32382 1.98431 5
-5.70325 -3.32366 1.99576 6
-5.69545 -3.32692 2.00726 5
-5.72379 -3.30798 2.01854 5
-5.71433 -3.33433 2.03023 5
-5.71621 -3.31122 2.04151 5
-5.71335 -3.31603 2.05416 5
-5.71104 -3.31985 2.06451 5
-5.70319 -3.3231 2.07597 5
-5.69877 -3.32035 2.08736 5
-5.69574 -3.32505 2.09885 5
-5.68498 -3.28349 2.1096 5
-5.62742 -3.28288 2.12029 5
-5.62524 -3.25648 2.13115 4
-5.65086 -3.30151 2.14358 5
-5.66741 -3.29246 2.15506 5
-5.68479 -3.31168 2.16712 5
-5.7197 -3.33048 2.1796 6
-5.72025 -3.33863 2.19127 5
-5.69644 -3.28941 2.2012 6
-5.63871 -3.28877 2.21121 5
-5.69697 -3.29732 2.22425 5
-5.7007 -3.32993 2.23656 6
-5.70474 -3.32125 2.25942 8
-5.77502 -3.36714 2.28597 5
-5.69263 -3.31821 2.30481 6
-5.66804 -3.30882 2.32648 5
-5.6356 -3.25643 2.40292 4
-5.68959 -3.3065 2.52226 6
-5.69748 -3.3097 2.70173 5
-4.60602 -2.68057 2.70811 37
-5.73293 -3.33776 3.16954 43
-5.75832 -3.31645 3.4712 45
-4.51867 -2.6261 3.49396 45
nan nan nan nan
-3.99572 -2.32805 0.463081 8
-4.71663 -2.72974 0.551009 5
-5.09152 -2.9669 0.700988 4
nan nan nan nan
-5.58621 -3.22493 0.950913 4
-4.65424 -2.69003 1.23223 22
-5.62491 -3.2532 1.17241 4
-5.80791 -3.35291 1.2283 3
-5.72445 -3.3215 1.29677 5
nan nan nan nan
-4.61711 -2.66623 1.49551 83
-5.63595 -3.25767 1.41789 4
-5.72319 -3.31972 1.43147 6
-5.65737 -3.28781 1.46071 5
-5.69682 -3.28322 1.48088 5
-5.67358 -3.27738 1.50566 4
-5.65708 -3.27936 1.52956 5
-4.67193 -2.71418 1.63212 5
-4.59695 -2.64709 1.65635 9
-4.61681 -2.66516 1.67323 5
-4.93014 -2.86332 1.67008 5
-4.70256 -2.73027 1.70449 5
-4.67168 -2.6961 1.72558 6
-4.61195 -2.66178 1.74767 5
-5.60849 -3.25503 1.71425 5
nan nan nan nan
-5.67482 -3.27367 1.75671 5
-5.66768 -3.26789 1.77979 5
-4.59187 -2.64331 1.83172 9
-5.69821 -3.30636 1.80123 8
-5.75104 -3.3154 1.81109 4
-5.76426 -3.34293 1.82204 5
-4.64362 -2.67541 1.86693 57
nan nan nan nan
-4.61623 -2.66408 1.88621 40
nan nan nan nan
-4.57211 -2.63136 1.90658 11
-5.71396 -3.31345 1.89247 9
nan nan nan nan
-5.76678 -3.34233 1.91458 5
-4.64074 -2.67317 1.94132 57
-5.72308 -3.29878 1.93821 4
-4.60013 -2.6542 1.96029 59
nan nan nan nan
nan nan nan nan
-5.63684 -3.25886 1.98442 6
-5.71914 -3.30624 1.9956 5
-5.78925 -3.35461 2.00716 5
-4.59051 -2.63083 2.01538 22
-4.56649 -2.64261 2.02464 27
-4.60074 -2.64329 2.03385 5
nan nan nan nan
nan nan nan nan
nan nan nan nan
-5.71466 -3.30293 2.08727 6
-5.75925 -3.33519 2.09956 5
-4.58629 -2.62677 2.08866 31
-4.58334 -2.65181 2.09816 31
-4.58764 -2.63412 2.10712 9
-4.57684 -2.65251 2.11644 6
-4.58309 -2.64129 2.12552 1
-4.58393 -2.64934 2.13486 5
-5.68368 -3.28301 2.17797 5
-5.74918 -3.32865 2.19169 5
-4.57206 -2.61803 2.16149 39
-4.58632 -2.65296 2.17174 35
-4.57319 -2.62524 2.17996 10
-4.55799 -2.64101 2.18907 9
-4.55664 -2.63195 2.20709 6
-5.75647 -3.32946 2.28433 5
-4.54565 -2.62778 2.24312 11
-4.55601 -2.63824 2.26209 10
-4.582 -2.62597 2.32702 22
-4.58697 -2.64443 2.42018 6
-4.58033 -2.63949 2.5628 9
-4.61968 -2.66692 2.70865 35
-5.74887 -3.32015 3.17026 40
-5.7657 -3.29385 3.46996 44
-4.52372 -2.60785 3.49245 52
nan nan nan nan
-3.99963 -2.31179 0.464564 8
-4.66322 -2.67729 0.570318 6
-5.66398 -3.27368 0.556479 3
-4.61639 -2.64827 1.00271 102
-4.61284 -2.64109 1.137 38
-4.62063 -2.64918 1.23925 66
-4.61249 -2.64615 1.32407 6
-4.60841 -2.6392 1.39035 89
-4.60264 -2.64956 1.43702 5
-4.5986 -2.63228 1.46608 4
-4.59182 -2.63031 1.4992 55
-4.57597 -2.62363 1.52947 9
-4.5861 -2.6392 1.54652 9
-5.68174 -3.27553 1.45931 5
-4.64404 -2.65438 1.57873 8
-4.57332 -2.62047 1.60341 11
-4.60486 -2.64835 1.61884 9
-4.59489 -2.64812 1.6389 6
-4.63213 -2.64591 1.65426 60
-4.58276 -2.62424 1.67622 24
-4.62432 -2.66431 1.69139 35
-4.66011 -2.68399 1.70768 8
-4.64639 -2.65993 1.72753 23
-4.62554 -2.64816 1.7473 32
-4.58507 -2.64007 1.76767 8
-5.86751 -3.37754 1.72483 3
-4.58496 -2.62309 1.80463 37
-4.64238 -2.65507 1.82071 39
-4.61842 -2.63719 1.83094 25
-4.60938 -2.65349 1.84028 5
-4.62125 -2.64327 1.84926 49
-4.60576 -2.65052 1.85885 9
-4.59653 -2.62691 1.86847 42
-4.59631 -2.62795 1.87766 38
-4.59513 -2.63056 1.88685 46
-4.58844 -2.62258 1.89621 59
-4.58994 -2.62035 1.90627 69
-4.58562 -2.63818 1.91455 9
-4.59688 -2.62876 1.92355 64
-4.59477 -2.64256 1.93275 9
-4.59797 -2.62716 1.9419 41
-4.5933 -2.62565 1.95114 40
-4.58767 -2.62571 1.96037 45
-4.57264 -2.61191 1.96963 72
-4.57035 -2.616 1.97879 39
-4.59406 -2.63499 1.98786 47
-4.58964 -2.63256 1.99705 62
-4.64747 -2.67224 2.00629 10
-4.61704 -2.62468 2.0153 59
-4.60169 -2.64161 2.02464 49
-4.59691 -2.61979 2.03364 74
-4.58587 -2.61889 2.04368 81
-4.57091 -2.61469 2.05181 68
nan nan nan nan
-4.5765 -2.62446 2.07023 61
nan nan nan nan
-4.59544 -2.61074 2.08853 46
-4.57523 -2.62583 2.09767 50
-4.58812 -2.61314 2.1068 34
-4.58174 -2.63403 2.1162 50
-4.59229 -2.62528 2.12539 37
-4.58448 -2.62835 2.13448 41
-4.58897 -2.62996 2.14377 32
-4.59454 -2.63963 2.15326 31
-4.59855 -2.61193 2.16196 47
-4.57823 -2.62698 2.17097 40
-4.59101 -2.61421 2.18017 57
-4.56286 -2.62259 2.18877 83
-4.57448 -2.62099 2.20735 67
-4.76683 -2.73564 2.23519 74
-4.56347 -2.61687 2.24345 73
-4.56087 -2.61982 2.26172 96
-4.59983 -2.61488 2.32751 81
-4.60917 -2.63581 2.42124 76
-4.61544 -2.63826 2.56585 82
-4.6376 -2.65567 2.70984 95
-5.74339 -3.29022 3.16662 42
-5.76449 -3.26643 3.46655 44
-4.53287 -2.59199 3.49233 51
nan nan nan nan
-4.00349 -2.29553 0.466046 8
-4.62628 -2.63479 0.584444 90
nan nan nan nan
-4.62982 -2.63462 1.00166 4
-4.58768 -2.6055 1.14335 63
-4.61261 -2.62328 1.24198 49
-4.60442 -2.62025 1.3265 69
-4.60892 -2.61822 1.39138 58
-4.59887 -2.62611 1.4385 78
-4.61206 -2.61869 1.46545 5
-4.60528 -2.61675 1.4986 95
-4.59373 -2.61259 1.52844 78
-4.59526 -2.6232 1.54639 66
-4.60276 -2.63299 1.56394 91
-4.60124 -2.60865 1.58338 75
-4.59109 -2.60944 1.60252 65
-4.59673 -2.6224 1.62016 71
-4.59542 -2.62714 1.63946 63
-4.59792 -2.60513 1.65742 41
-4.58754 -2.60578 1.6764 58
-4.58589 -2.62094 1.6945 45
-4.59137 -2.6232 1.71253 56
-4.59052 -2.60669 1.73129 13
-4.58263 -2.60241 1.75008 49
-4.58556 -2.61911 1.76799 49
-4.58603 -2.61957 1.7863 20
-4.58974 -2.60461 1.8047 48
-4.59511 -2.6068 1.82282 50
-4.6015 -2.60629 1.83179 50
-4.58822 -2.62005 1.84124 53
-4.6 -2.60988 1.85015 52
-4.60195 -2.62701 1.85914 52
-4.60132 -2.60839 1.86847 62
-4.59241 -2.60449 1.87789 49
-4.59559 -2.60957 1.88695 57
-4.59756 -2.60655 1.89609 50
-4.5947 -2.60185 1.90624 43
-4.58611 -2.61721 1.9146 52
-4.59732 -2.60778 1.92358 44
-4.59962 -2.62404 1.93269 51
-4.59841 -2.60616 1.94189 51
-4.59374 -2.60466 1.95111 48
-4.5968 -2.60969 1.96024 49
-4.59912 -2.6058 1.96938 48
-4.5925 -2.60744 1.97859 48
-4.60757 -2.62141 1.98772 44
-4.61619 -2.6264 1.9969 48
-4.60028 -2.62384 2.00613 99
-4.62182 -2.60609 2.01516 48
-4.60654 -2.62305 2.02449 40
-4.60168 -2.60127 2.03348 47
-4.59499 -2.60287 2.04356 52
-4.58871 -2.60366 2.05177 45
-4.58583 -2.60847 2.06096 44
-4.58999 -2.61094 2.07017 59
-4.59616 -2.61985 2.07949 48
-4.60017 -2.59222 2.08832 61
-4.58437 -2.60984 2.09755 48
-4.59722 -2.5971 2.10667 54
-4.58657 -2.61554 2.11597 57
-4.59273 -2.6043 2.12504 59
-4.58494 -2.60739 2.13411 46
-4.58944 -2.60898 2.14338 53
-4.5907 -2.61616 2.15271 34
-4.59894 -2.59095 2.16154 50
-4.58738 -2.61098 2.17085 40
-4.60012 -2.59816 2.18005 47
-4.58067 -2.6116 2.189 54
-4.58361 -2.605 2.20723 52
-4.58961 -2.61284 2.22595 69
-4.58127 -2.60586 2.24379 56
-4.57868 -2.60882 2.26209 65
-4.60025 -2.59389 2.32677 95
-4.59235 -2.60494 2.41875 50
-4.56842 -2.59024 2.55884 53
-4.60376 -2.61499 2.70312 95
-5.7549 -3.2701 3.16646 41
-5.76743 -3.24144 3.46422 45
-4.53778 -2.57372 3.49083 41
nan nan nan nan
-4.01551 -2.28395 0.464345 8
-4.648 -2.62581 0.580428 65
-4.63406 -2.63638 0.825429 99
-4.64748 -2.62332 0.999669 3
-4.63967 -2.61375 1.13512 94
-4.63031 -2.61206 1.24042 85
-4.62214 -2.60907 1.3251 79
-4.61367 -2.59971 1.39183 95
-4.60798 -2.61007 1.43837 76
-4.62114 -2.6026 1.46532 6
-4.61869 -2.60313 1.49799 66
-4.6028 -2.59656 1.52831 74
-4.60436 -2.60717 1.54626 45
-4.6119 -2.61693 1.56381 64
-4.61464 -2.59504 1.58285 57
-4.60015 -2.59342 1.6024 70
-4.60583 -2.60635 1.62004 44
-4.60888 -2.61356 1.63899 95
-4.61132 -2.59152 1.65696 41
-4.60093 -2.59222 1.67597 95
-4.59934 -2.60739 1.69408 42
-4.60483 -2.60963 1.71212 94
-4.60392 -2.59312 1.7309 45
-4.59602 -2.58887 1.74971 64
-4.59901 -2.60556 1.76764 42
-4.59948 -2.60602 1.78596 20
-4.59444 -2.58613 1.80476 48
-4.59981 -2.58831 1.82286 48
-4.61056 -2.59022 1.83166 51
-4.58863 -2.5991 1.84142 42
-4.60472 -2.59137 1.85017 51
-4.60673 -2.60848 1.85915 46
-4.60603 -2.58987 1.86847 40
-4.60582 -2.5909 1.87764 45
-4.60901 -2.59598 1.88671 39
-4.61098 -2.59295 1.89586 44
-4.61247 -2.5907 1.90593 45
-4.59956 -2.60365 1.91439 42
-4.60639 -2.59172 1.92345 43
-4.60874 -2.60797 1.93257 43
-4.60748 -2.5901 1.94176 38
-4.6028 -2.58862 1.95098 45
-4.61024 -2.59608 1.96007 38
-4.60819 -2.58973 1.96925 54
-4.60157 -2.5914 1.97847 55
-4.59927 -2.59549 1.98765 62
-4.60355 -2.598 1.9968 41
-4.60941 -2.60776 2.00601 81
-4.60908 -2.57773 2.01497 39
-4.59391 -2.59465 2.02426 40
-4.61073 -2.58519 2.03335 83
-4.60404 -2.58681 2.04343 54
-4.60213 -2.59007 2.05169 54
-4.59491 -2.59245 2.06083 6
-4.59907 -2.5949 2.07004 40
-4.60093 -2.60133 2.07929 51
-4.60919 -2.57615 2.0882 41
-4.59346 -2.59382 2.09742 40
-4.60626 -2.58104 2.10654 43
-4.59568 -2.59951 2.11584 45
-4.59744 -2.5858 2.12479 40
-4.59402 -2.59137 2.13398 41
-4.59417 -2.59049 2.14312 44
-4.59981 -2.60012 2.15258 34
-4.60796 -2.57488 2.16141 41
-4.59647 -2.59494 2.17072 36
-4.60917 -2.58208 2.17992 46
-4.58977 -2.59559 2.18887 53
-4.59704 -2.59143 2.20729 57
-4.60306 -2.59925 2.22603 54
-4.59469 -2.5923 2.24389 40
-4.59647 -2.59773 2.26245 76
-4.618 -2.58268 2.32725 42
-4.61013 -2.59377 2.41941 94
-4.60346 -2.58888 2.56189 94
-4.60426 -2.59402 2.70167 87
-5.75347 -3.24269 3.16369 42
-5.76599 -3.2141 3.46081 47
-4.53006 -2.54838 3.48518 42
nan nan nan nan
-4.02338 -2.26998 0.464234 8
-4.61492 -2.58605 0.59326 94
-4.64742 -2.62264 0.824215 85
-4.64799 -2.60232 1.0014 38
-4.64872 -2.59758 1.13499 59
-4.63936 -2.59592 1.24029 31
-4.62685 -2.59053 1.3256 60
-4.62702 -2.58604 1.39113 42
-4.5997 -2.58426 1.44038 64
-4.63886 -2.59133 1.46417 78
-4.61469 -2.57972 1.4993 63
-4.59442 -2.57077 1.52999 96
-4.61775 -2.59354 1.5457 50
-4.6123 -2.59595 1.56451 96
-4.62364 -2.57894 1.58272 42
-4.6135 -2.5798 1.60189 95
-4.61923 -2.59272 1.61954 57
-4.6223 -2.59992 1.63852 96
-4.62467 -2.57786 1.6565 41
-4.61865 -2.58103 1.67521 52
-4.6171 -2.59623 1.69336 57
-4.61825 -2.596 1.71172 48
-4.62165 -2.58192 1.73025 42
-4.61373 -2.57769 1.7491 45
-4.61242 -2.59195 1.76729 43
-4.61289 -2.59241 1.78563 36
-4.60778 -2.57253 1.80444 40
-4.61317 -2.57468 1.82256 41
-4.61956 -2.57412 1.83153 36
-4.6151 -2.59287 1.84067 30
-4.61809 -2.57772 1.84989 40
-4.64196 -2.60706 1.8582 29
-5.70594 -3.1832 1.83619 9
-4.6061 -2.56994 1.87775 39
-4.65731 -2.60184 1.88558 5
-4.63309 -2.58415 1.89542 39
-4.63895 -2.58432 1.90543 8
-4.62606 -2.59737 1.91392 20
-4.6154 -2.57563 1.92332 41
-4.65707 -2.61387 1.93183 28
-5.7252 -3.19322 1.92669 8
-4.60743 -2.5701 1.9509 40
-4.63236 -2.5873 1.95982 5
-4.62593 -2.57851 1.96905 38
-4.62805 -2.58508 1.97824 39
-4.61703 -2.58431 1.9875 42
-4.62568 -2.58924 1.99665 42
-4.63157 -2.59899 2.00589 37
-4.63116 -2.56891 2.01488 40
-4.62038 -2.58839 2.02421 39
-4.63283 -2.57637 2.03331 38
-4.62615 -2.57803 2.04341 39
-4.61988 -2.57887 2.05166 39
-4.61266 -2.58128 2.06081 6
-4.61247 -2.58127 2.06997 37
-4.61871 -2.59014 2.07931 34
-4.62253 -2.56247 2.08815 36
-4.60685 -2.58021 2.09738 34
-4.61961 -2.56737 2.10651 35
-4.60909 -2.5859 2.11582 28
-4.60644 -2.56973 2.12466 37
-4.62049 -2.58507 2.13435 46
-4.59882 -2.572 2.14285 37
-4.66556 -2.61578 2.1543 20
-4.61693 -2.55877 2.16128 37
-4.56627 -2.55688 2.16916 44
-4.60506 -2.55869 2.17928 24
-4.60317 -2.58199 2.18892 40
-4.58862 -2.56561 2.20639 45
-4.66008 -2.60998 2.22823 25
nan nan nan nan
-4.60987 -2.58411 2.26257 35
nan nan nan nan
-4.60176 -2.56793 2.4177 41
-4.62987 -2.58246 2.56388 28
-4.60899 -2.57549 2.70088 55
-5.75192 -3.21533 3.16092 44
-5.76443 -3.18681 3.45739 45
-4.5474 -2.53717 3.48781 40
nan nan nan nan
-4.02293 -2.25137 0.467305 8
-4.64073 -2.57936 0.587946 52
-4.65223 -2.60407 0.825172 95
-5.67447 -3.15211 0.780748 3
-4.62751 -2.56462 1.14053 10
-5.73422 -3.18281 1.06062 5
-4.61849 -2.56476 1.32803 71
-5.79148 -3.21029 1.23731 5
-4.613 -2.57063 1.43972 42
nan nan nan nan
nan nan nan nan
-4.60334 -2.55474 1.52986 50
-4.61805 -2.57258 1.54644 42
-4.65177 -2.59684 1.56147 32
-5.72694 -3.16894 1.48248 4
-4.62246 -2.5637 1.60176 33
-4.61516 -2.56932 1.62051 42
-4.67055 -2.60563 1.63527 25
-4.64235 -2.56655 1.65571 50
-4.62761 -2.56491 1.67508 12
-4.6174 -2.57525 1.69382 50
-4.62727 -2.57988 1.71159 75
-4.63935 -2.57063 1.7296 19
-4.64453 -2.57369 1.74776 45
-4.63452 -2.58314 1.76648 44
-4.66119 -2.59816 1.78364 70
-4.61672 -2.55644 1.80431 9
nan nan nan nan
-5.75264 -3.1791 1.78934 8
-4.58918 -2.5573 1.84178 42
-5.7861 -3.20249 1.81102 6
-4.65102 -2.59085 1.85807 67
-5.77385 -3.19476 1.83435 7
nan nan nan nan
-5.73305 -3.17703 1.8583 5
nan nan nan nan
-5.7419 -3.17243 1.88204 8
-4.60014 -2.56176 1.91447 41
-5.74007 -3.1763 1.9037 8
-4.67053 -2.60003 1.93163 49
-5.7538 -3.18292 1.92629 8
nan nan nan nan
-5.72583 -3.1723 1.94941 6
nan nan nan nan
-5.73925 -3.17939 1.97206 7
-4.58667 -2.54635 1.9875 5
-4.63469 -2.57308 1.99652 27
-4.68432 -2.6071 2.00578 41
-5.72611 -3.1512 2.01742 6
-5.7261 -3.18235 2.02902 6
-5.74053 -3.16663 2.04027 6
-5.73779 -3.17147 2.05283 6
-5.76182 -3.18984 2.06338 7
nan nan nan nan
-4.59959 -2.55303 2.06953 11
-4.6758 -2.6007 2.07997 31
-5.72625 -3.14924 2.10816 6
nan nan nan nan
nan nan nan nan
-5.68385 -3.16298 2.14179 5
nan nan nan nan
-5.73108 -3.17976 2.16555 6
-4.57717 -2.53897 2.14179 6
nan nan nan nan
-5.7291 -3.15007 2.19904 6
-5.73261 -3.1845 2.21123 6
-5.7167 -3.15071 2.22145 5
-5.69065 -3.16604 2.23244 5
-5.68134 -3.15015 2.25439 6
-5.69144 -3.16061 2.2776 5
-5.71292 -3.17152 2.30134 6
-5.67071 -3.15292 2.32184 5
-5.68956 -3.13039 2.40105 5
nan nan nan nan
-5.68743 -3.14618 2.69126 5
-4.61799 -2.55936 2.70075 55
-5.75886 -3.1928 3.15989 44
-5.76704 -3.16191 3.45506 47
-4.5521 -2.5189 3.48631 40
nan nan nan nan
-4.03483 -2.23968 0.4656 8
-4.67924 -2.57951 0.57874 52
-4.66549 -2.59024 0.823955 69
-5.66387 -3.12047 0.78524 3
-5.69109 -3.12893 0.942683 4
-5.75391 -3.1676 1.05903 5
-5.75235 -3.16843 1.16253 5
-5.7765 -3.17574 1.24061 5
-5.76642 -3.18666 1.29902 5
-5.74253 -3.15486 1.33729 5
-5.67444 -3.12142 1.38478 4
nan nan nan nan
-5.73022 -3.16559 1.43658 5
nan nan nan nan
-5.76852 -3.16575 1.47952 4
-5.73207 -3.15319 1.50547 5
nan nan nan nan
-4.6665 -2.58209 1.63618 87
nan nan nan nan
-4.61903 -2.53914 1.6762 5
-4.64381 -2.56879 1.69251 5
-4.66682 -2.58062 1.70952 5
nan nan nan nan
-4.64909 -2.55507 1.74787 4
nan nan nan nan
nan nan nan nan
-5.75518 -3.16142 1.75518 7
-5.76107 -3.16299 1.7778 6
-5.77245 -3.16382 1.78885 7
-5.70488 -3.15255 1.80245 7
-5.7797 -3.17267 1.81144 6
-5.7454 -3.17327 1.82383 6
-5.77181 -3.16738 1.83458 7
-5.76729 -3.16602 1.84614 7
-5.76599 -3.16906 1.85758 5
-5.76414 -3.16262 1.86907 7
-5.76609 -3.15958 1.8816 8
-5.73391 -3.16654 1.89245 7
-5.7555 -3.15866 1.90347 8
-5.74791 -3.1726 1.91497 6
-5.75172 -3.1556 1.92631 7
-5.75582 -3.15898 1.93766 8
-5.75877 -3.16434 1.94904 6
-5.76609 -3.16164 1.96037 6
-5.76784 -3.16897 1.9718 7
-5.7564 -3.16905 1.98329 6
-5.76083 -3.1713 1.99469 7
-5.76188 -3.17956 2.00615 6
-5.77218 -3.15038 2.01734 6
-5.76344 -3.17683 2.02898 6
-5.7647 -3.15378 2.0402 6
-5.76198 -3.15864 2.05278 6
-5.76416 -3.16489 2.06312 7
-5.75202 -3.1659 2.07448 6
-5.75193 -3.16567 2.08587 7
-5.74464 -3.16802 2.09723 5
-5.76353 -3.14361 2.10848 6
-5.74537 -3.16613 2.12 5
-5.7514 -3.14445 2.13113 5
-5.743 -3.1697 2.1428 5
-5.75497 -3.1578 2.15419 6
-5.75091 -3.16455 2.16564 6
-5.75122 -3.16324 2.17702 6
-5.752 -3.17133 2.1886 6
-5.75323 -3.13724 2.19933 6
-5.7437 -3.16447 2.21107 6
-5.75397 -3.14511 2.2223 5
-5.72793 -3.16064 2.23334 5
-5.73172 -3.15195 2.25598 6
-5.74185 -3.16239 2.27935 5
-5.74147 -3.16119 2.3021 6
-5.7298 -3.15963 2.32439 5
-5.75303 -3.1392 2.40458 5
-5.747 -3.15438 2.51917 6
-5.74637 -3.15259 2.69692 5
-4.60086 -2.5289 2.69667 12
-5.75709 -3.16551 3.15712 42
-5.76954 -3.13704 3.45273 49
-4.55672 -2.50062 3.4848 41
nan nan nan nan
-4.04254 -2.22565 0.465486 8
-4.67967 -2.5586 0.5812 4
nan nan nan nan
-5.67466 -3.10073 0.785079 3
-5.74523 -3.13273 0.934417 4
-5.74317 -3.13567 1.06244 5
-5.77204 -3.15312 1.16109 5
-5.75262 -3.13658 1.24507 5
-5.73823 -3.14506 1.30367 5
-5.736 -3.12531 1.33916 5
-5.74642 -3.13503 1.37793 4
-5.73112 -3.12874 1.41498 4
-5.73246 -3.14081 1.43729 5
-5.74454 -3.15358 1.45877 5
-5.74887 -3.12893 1.48215 4
-5.75614 -3.14035 1.50416 5
-5.74408 -3.14512 1.52773 4
-4.66671 -2.56101 1.63674 5
-5.68107 -3.08997 1.57868 3
-5.70999 -3.11313 1.59899 3
nan nan nan nan
-4.66265 -2.55713 1.71022 4
-5.72225 -3.11941 1.66622 4
-5.74102 -3.12931 1.68787 4
-5.73003 -3.14115 1.71091 6
-5.75281 -3.15327 1.73255 6
