# .PCD v0.7 - Point Cloud Data file format
VERSION 0.7
FIELDS x y z intensity
SIZE 4 4 4 4
TYPE F F F F
COUNT 1 1 1 1
WIDTH 1847
HEIGHT 1
VIEWPOINT 0 0 0 1 0 0 0
POINTS 1847
DATA ascii
-17.8067 6.07597 0.423037 13
-18.6079 6.33768 0.424725 13
-19.1594 6.58969 0.442603 11
-19.9441 6.83916 0.453345 12
-20.8371 7.09585 0.462976 14
-21.169 7.22046 0.516263 4
-21.0526 7.22183 0.600778 5
-20.9807 7.20044 0.683069 5
-20.8713 7.11739 0.768723 4
-20.8776 7.12686 0.845204 3
-20.8251 7.1537 0.923552 3
-20.804 7.1497 1.00139 3
-20.764 7.16389 1.04079 3
-20.7987 7.09842 1.07996 3
-20.7649 7.1553 1.11771 3
-20.8548 7.12893 1.15406 3
-20.6863 7.11625 1.19778 3
-20.8627 7.17648 1.22942 3
-20.8052 7.14819 1.27019 3
-20.8405 7.17213 1.30706 3
-20.8107 7.18591 1.34965 3
-20.8579 7.1285 1.38473 3
-20.7728 7.16382 1.4239 4
-20.9555 7.17331 1.45878 3
-20.7971 7.16016 1.50023 5
-20.921 7.2024 1.53582 3
-20.9718 7.21126 1.57356 3
-21.081 7.26487 1.60982 3
-21.0701 7.25249 1.64907 3
nan nan nan nan
nan nan nan nan
nan nan nan nan
-21.177 7.34641 1.80229 3
-21.2825 7.28706 1.8424 3
-21.287 7.36713 1.88011 3
-21.347 7.36257 1.92353 3
-21.3722 7.36661 1.95898 3
-21.4496 7.37199 1.99872 3
-21.5335 7.40464 2.03832 3
-21.7467 7.46063 2.07903 3
-39.6144 13.7578 2.21207 11
-39.5436 13.5482 2.28743 11
-39.7176 13.7631 2.35971 5
-42.882 14.6757 2.46982 9
-42.8378 14.7863 2.54668 3
-42.7954 14.7219 2.62574 34
-42.9544 14.7938 2.7071 28
-43.0983 14.8016 2.78946 31
-42.8674 14.8992 2.86244 23
-43.0319 14.755 2.94727 32
-43.1532 14.9656 3.02792 32
-43.0571 14.7476 3.10684 31
-42.8098 14.7472 3.25779 32
-43.0843 14.8257 3.42506 30
-42.6734 14.6524 3.56926 34
-25.744 8.83009 3.04248 11
-25.2898 8.8002 3.35095 8
-42.6693 14.7509 5.0688 30
-42.9915 14.8857 6.33035 37
nan nan nan nan
-17.2619 5.96691 5.01373 15
-17.5795 6.18097 5.91343 29
-17.0213 5.92556 6.94993 33
nan nan nan nan
nan nan nan nan
nan nan nan nan
nan nan nan nan
nan nan nan nan
nan nan nan nan
-10.4243 3.59963 0.288812 3
-11.3896 3.93085 0.320411 11
-12.3924 4.29332 0.333475 12
-13.1608 4.52994 0.354412 20
-13.7433 4.77108 0.355993 10
-14.4198 4.98931 0.369743 12
-15.0587 5.20842 0.384307 9
-15.5731 5.36692 0.387813 10
-16.1556 5.55714 0.387841 12
-16.5624 5.75365 0.40599 11
-17.1331 5.93402 0.415376 12
-17.7664 6.13151 0.423542 13
-18.5856 6.40252 0.423499 13
-19.1315 6.65481 0.441723 11
-19.9248 6.91029 0.451662 12
-20.8122 7.16846 0.461603 17
-21.9076 7.55794 0.461005 11
-21.0696 7.30991 0.596552 5
nan nan nan nan
-20.7331 7.15106 0.774072 4
-20.7629 7.16865 0.848821 3
-20.7151 7.1968 0.926597 4
-20.7081 7.19763 1.00344 3
-20.6916 7.21981 1.04161 3
-20.703 7.14647 1.08175 3
-20.6832 7.20796 1.11876 3
-20.707 7.15917 1.1577 3
-20.6896 7.19822 1.19531 3
-20.7006 7.20162 1.23314 3
-20.714 7.19777 1.27115 4
-20.7162 7.2103 1.30901 3
-20.7147 7.23375 1.35051 5
-20.7479 7.17183 1.38589 4
-20.7288 7.22967 1.42305 8
-20.765 7.18911 1.46172 3
-20.7201 7.21461 1.50012 13
-20.8202 7.24906 1.53614 3
-20.8662 7.25649 1.57383 6
-20.9469 7.30054 1.61047 3
-20.9644 7.29802 1.64903 3
-21.0126 7.29798 1.68736 4
-21.0166 7.30308 1.72601 3
-21.0659 7.29924 1.76465 3
-21.0049 7.36898 1.80228 3
-21.1388 7.32039 1.84189 3
-21.1951 7.41826 1.87909 3
-21.2173 7.40079 1.92251 3
-21.233 7.40164 1.95781 3
-21.3057 7.40576 1.99734 3
-21.4131 7.44689 2.03675 3
-21.7063 7.53156 2.07754 3
nan nan nan nan
nan nan nan nan
-40.1506 14.0703 2.36139 4
-42.8 14.8064 2.46677 9
-42.852 14.9588 2.54469 1
-42.8241 14.8991 2.62408 13
-42.7893 14.9041 2.70241 29
-42.8622 14.888 2.78326 31
-25.5437 8.97976 2.51376 8
-25.552 8.86237 2.56238 17
-25.4777 8.9361 2.60683 10
-42.8758 14.8446 3.10075 30
-42.6874 14.8719 3.25289 29
-42.9427 14.9448 3.41925 28
-42.6504 14.8111 3.56749 33
-25.6911 8.90725 3.03991 11
-42.4999 14.9543 4.26943 35
-42.6742 14.9196 5.07005 23
-42.9348 15.0342 6.32703 34
nan nan nan nan
-17.311 6.05165 5.0248 11
-16.7235 5.94583 5.7261 29
-17.161 6.03817 6.99526 31
nan nan nan nan
nan nan nan nan
nan nan nan nan
nan nan nan nan
nan nan nan nan
nan nan nan nan
-10.4115 3.63591 0.288123 7
-11.3758 3.97051 0.319658 12
-12.3772 4.33648 0.332656 12
-13.1448 4.57577 0.353542 11
-13.7265 4.81894 0.355083 13
-14.4022 5.03954 0.36879 12
-15.0403 5.26088 0.383311 8
-15.5448 5.4179 0.387763 10
-16.136 5.61342 0.386774 11
-16.5374 5.8097 0.405349 10
-17.1122 5.99371 0.414243 13
-17.7354 6.19013 0.423207 13
-18.5536 6.464 0.423074 13
-19.1034 6.71982 0.440842 11
-19.891 6.97643 0.451079 12
-20.7917 7.24263 0.459878 14
-21.9328 7.65237 0.455896 12
-22.8333 8.0109 0.475264 6
-24.0003 8.42432 0.48593 6
-20.6325 7.19701 0.777191 4
-20.667 7.21632 0.851395 3
-20.6285 7.2475 0.928421 4
-20.6297 7.25519 1.00451 4
-20.6238 7.27698 1.04222 5
-20.6307 7.20218 1.08249 4
-20.606 7.26179 1.11962 5
-20.6441 7.21816 1.15788 4
-20.6313 7.25875 1.19523 7
-20.6423 7.26219 1.23301 4
-20.6651 7.2617 1.27062 11
-20.6755 7.28116 1.30805 5
-20.6752 7.30098 1.34958 15
-20.7085 7.23922 1.38494 28
-20.694 7.29862 1.42194 23
-20.7209 7.2549 1.46084 20
-20.7136 7.29349 1.49829 30
-20.7288 7.29842 1.53625 4
-20.7605 7.30106 1.57411 3
-20.788 7.33069 1.6115 3
-20.8303 7.33294 1.64949 3
-20.8596 7.32651 1.6879 3
-20.8872 7.33989 1.72599 3
-20.9412 7.33797 1.76439 3
-20.9508 7.43221 1.80116 3
-20.9952 7.35281 1.8414 3
-21.0135 7.43714 1.87861 3
-21.0675 7.43523 1.92151 3
-21.0891 7.43414 1.95666 3
-21.1618 7.43861 1.99597 3
-21.2737 7.48175 2.03517 4
-21.6658 7.60231 2.07606 3
nan nan nan nan
-25.9905 9.10886 2.18686 4
-25.8923 9.17584 2.23257 37
-25.8673 9.05004 2.28178 36
-25.7613 9.09356 2.32718 3
-42.819 15.0651 2.62193 28
-42.7795 15.0684 2.70027 31
-42.8383 15.0475 2.78094 34
-25.5264 9.0739 2.51235 8
-25.5115 8.94821 2.56048 31
-25.4793 9.03668 2.60593 29
-42.871 15.0107 3.09912 33
-42.7767 15.0707 3.2542 30
-42.7301 15.0382 3.41112 32
-25.1018 8.81653 2.92272 13
-25.641 8.99029 3.03745 34
-42.4852 15.116 4.26862 32
-42.6503 15.0786 5.06925 31
-42.9761 15.2174 6.33365 41
nan nan nan nan
-17.3085 6.11873 5.02691 30
-16.5785 5.95964 5.69723 32
-17.0992 6.08369 6.98219 17
nan nan nan nan
nan nan nan nan
nan nan nan nan
nan nan nan nan
nan nan nan nan
nan nan nan nan
-10.394 3.67051 0.288204 7
-11.361 4.01209 0.318867 12
-12.3518 4.37842 0.333062 13
-13.1287 4.62155 0.352672 20
-13.7095 4.86675 0.354173 13
-14.3845 5.0897 0.367835 13
-15.0021 5.30925 0.384292 9
-15.5257 5.47204 0.386733 10
-16.1162 5.66964 0.385705 11
-16.517 5.86731 0.404251 11
-17.0854 6.05464 0.413489 14
-17.6949 6.24529 0.423712 12
-18.5309 6.52864 0.421846 13
-19.0797 6.78638 0.439574 11
-19.8465 7.04253 0.451166 11
-20.7756 7.3184 0.457801 14
-21.9012 7.72715 0.454776 11
-22.8192 8.09548 0.472802 6
-23.9692 8.51214 0.484258 7
-20.6025 7.26726 0.776105 4
-20.5804 7.26674 0.853451 3
-20.5701 7.3077 0.928776 4
-20.5572 7.31037 1.00543 48
-20.5499 7.33567 1.04299 184
-20.5865 7.26744 1.08196 9
-20.5711 7.33027 1.11865 68
-20.5999 7.28346 1.15729 37
-20.6011 7.329 1.19405 23
-20.6074 7.3308 1.23199 47
-20.6255 7.32873 1.26975 14
-20.6298 7.35013 1.30724 39
-20.62 7.36658 1.34904 43
-20.6454 7.29809 1.38469 25
-20.6401 7.36069 1.42137 29
-20.6671 7.31714 1.46021 32
-20.655 7.35399 1.49772 28
-20.6655 7.3573 1.53573 5
-20.6972 7.36005 1.57351 3
-20.7139 7.39 1.61094 3
-20.7433 7.38378 1.64915 4
-20.7821 7.38085 1.68731 3
-20.8096 7.39431 1.7253 3
-20.8542 7.38928 1.76371 2
-20.8259 7.46985 1.80073 1
-20.9458 7.41769 1.8402 3
-21.0486 7.53232 1.87684 10
-21.0071 7.50061 1.92017 3
-20.9676 7.47778 1.9554 4
-21.0886 7.49567 1.99458 3
-21.1627 7.52579 2.03363 4
nan nan nan nan
nan nan nan nan
-25.9255 9.18783 2.18491 38
-25.8366 9.25773 2.23064 17
-25.8167 9.1336 2.27986 31
-25.7137 9.18287 2.3252 1
nan nan nan nan
nan nan nan nan
-25.5865 9.0864 2.4663 11
-25.5745 9.19168 2.51225 35
-25.5367 9.05726 2.56003 18
-25.4665 9.13232 2.60468 34
-25.4407 9.00776 2.65223 17
-42.9923 15.3155 3.25921 34
-25.8408 9.19421 2.85346 9
-25.0898 8.91081 2.92175 8
nan nan nan nan
-25.3186 9.10862 3.35244 28
-24.7051 8.83113 3.77865 9
-43.2464 15.4832 6.36342 34
nan nan nan nan
-17.2826 6.17757 5.02495 33
-17.1971 6.24989 5.839 37
-18.0807 6.50418 7.27388 21
nan nan nan nan
nan nan nan nan
nan nan nan nan
nan nan nan nan
nan nan nan nan
nan nan nan nan
-10.3811 3.70669 0.287514 14
-11.3462 4.05362 0.318074 12
-12.3348 4.42572 0.332158 12
-13.103 4.66394 0.352982 10
-13.6876 4.91282 0.353826 10
-14.3665 5.13981 0.366879 13
-14.9918 5.36747 0.382231 8
-15.497 5.52279 0.386682 10
-16.1056 5.72912 0.383691 11
-16.501 5.92654 0.402697 10
-17.063 6.11714 0.412297 14
-17.6682 6.30526 0.422958 12
-18.5079 6.59321 0.420615 13
-19.0371 6.84612 0.439848 11
-19.8298 7.11851 0.449043 11
-20.7451 7.38912 0.456772 14
-21.874 7.80347 0.453322 13
-22.7814 8.17164 0.471917 8
-23.9753 8.61335 0.480194 7
-20.5769 7.33907 0.774737 6
-20.5502 7.33679 0.852347 5
-20.535 7.37603 0.927901 10
-20.5255 7.38392 1.00423 200
-20.5216 7.41446 1.04148 235
-20.5469 7.33417 1.08123 42
-20.5219 7.39351 1.1183 95
-20.5602 7.35023 1.1565 97
-20.5519 7.39236 1.19361 28
-20.5581 7.39419 1.2315 68
-20.5762 7.39219 1.26922 38
-20.5745 7.41549 1.30676 38
-20.5774 7.44056 1.34798 41
-20.6104 7.36671 1.38361 38
-20.6002 7.42757 1.42039 40
-20.632 7.38583 1.45908 40
-20.6245 7.42431 1.49646 10
-20.6349 7.42766 1.53446 9
-20.6667 7.43053 1.57223 3
-20.6866 7.46584 1.6095 3
-20.7148 7.46335 1.64763 3
-20.7656 7.4567 1.68578 3
-20.8401 7.48717 1.72316 1
-20.8236 7.46032 1.76238 1
nan nan nan nan
nan nan nan nan
nan nan nan nan
-20.9936 7.58263 1.91865 8
-20.9152 7.54973 1.95392 4
-20.9776 7.53878 1.99322 3
-21.1316 7.59791 2.03222 3
nan nan nan nan
-25.6099 9.29819 2.13193 21
-25.7192 9.21588 2.18197 12
-25.682 9.30358 2.22785 39
-25.6607 9.18435 2.27675 31
-25.5184 9.22375 2.32132 1
-25.5183 9.17815 2.36919 33
-25.284 9.10359 2.41256 33
-25.5076 9.15877 2.46375 36
-25.3779 9.22117 2.50727 0
-25.4344 9.12104 2.55679 23
-25.3875 9.20414 2.60187 10
-43.0026 15.4031 3.09941 17
-25.5118 9.18807 2.74728 10
-25.8086 9.28438 2.85175 25
-25.1527 9.03212 2.92353 8
-24.8284 8.9054 3.00378 29
-25.2821 9.19528 3.3505 32
-24.9244 9.01765 3.79508 10
-25.5252 9.24914 4.57691 11
-30.501 11.0412 5.93758 4
nan nan nan nan
-17.4969 6.42812 5.90978 31
-18.0616 6.57228 7.27394 21
nan nan nan nan
nan nan nan nan
nan nan nan nan
nan nan nan nan
nan nan nan nan
nan nan nan nan
-10.368 3.74283 0.286823 13
-11.3279 4.08947 0.318051 12
-12.306 4.46146 0.33328 12
-13.0959 4.71294 0.350928 13
-13.675 4.96218 0.352348 12
-14.3484 5.18984 0.365922 13
-14.9692 5.41539 0.38179 9
-15.4682 5.5734 0.386631 10
-16.0854 5.78522 0.382619 11
-16.4801 5.98402 0.401597 11
-17.0285 6.16853 0.412531 13
-17.6413 6.36513 0.422202 13
-18.4753 6.65431 0.420188 13
-19.013 6.91245 0.438578 12
-19.806 7.18416 0.447787 12
-20.7051 7.45634 0.456445 14
-21.8512 7.88139 0.451532 13
-22.762 8.25443 0.469765 11
-23.9513 8.69444 0.478377 12
-20.5417 7.4074 0.77393 6
-20.5291 7.41011 0.850715 4
-20.5044 7.4459 0.926778 4
-20.5042 7.45717 1.00263 222
-20.5062 7.48585 1.03974 229
-20.5211 7.40579 1.07986 85
-20.5053 7.46847 1.11652 11
-20.5484 7.427 1.15455 61
-20.54 7.46913 1.19168 12
-20.5415 7.46928 1.22978 36
-20.5503 7.46393 1.26785 30
-20.5357 7.4785 1.30593 18
-20.5291 7.50014 1.34742 13
-20.4999 7.40799 1.38479 11
-20.5647 7.49597 1.41929 12
-20.5826 7.44926 1.45833 32
nan nan nan nan
-20.6229 7.50474 1.53276 11
-20.6359 7.50089 1.57095 3
-20.6336 7.5241 1.60872 3
-20.6698 7.52874 1.64658 3
nan nan nan nan
nan nan nan nan
nan nan nan nan
nan nan nan nan
nan nan nan nan
nan nan nan nan
-20.9307 7.63848 1.91747 1
-20.8947 7.62074 1.95259 3
-20.9418 7.60853 1.99182 5
-21.105 7.67161 2.03081 3
-25.66 9.30746 2.08473 4
-25.5663 9.38853 2.13008 15
-25.5975 9.27324 2.17964 37
-25.5367 9.35191 2.22515 39
-25.5391 9.24154 2.27409 34
-25.4877 9.30832 2.3197 1
-25.472 9.26205 2.36729 32
-25.238 9.18666 2.41065 30
-25.2264 9.15731 2.45755 29
-25.0061 9.19002 2.49878 35
-25.4024 9.20978 2.55509 20
-43.1017 15.7956 3.01871 38
-43.146 15.6246 3.10158 32
-25.5125 9.28906 2.74653 30
-25.7808 9.37614 2.85018 12
-25.215 9.15398 2.92529 28
-24.7126 8.96138 2.99871 28
-25.2499 9.28351 3.34881 32
-25.3614 9.27602 3.82715 8
-25.4555 9.32458 4.57143 36
-30.4532 11.1443 5.93434 4
-17.2301 6.29492 5.02102 36
-17.3415 6.43992 5.87882 37
-18.0479 6.63883 7.27538 21
nan nan nan nan
nan nan nan nan
nan nan nan nan
nan nan nan nan
nan nan nan nan
nan nan nan nan
-10.3534 3.78252 0.286061 13
-11.3089 4.12721 0.31799 12
-12.2903 4.50431 0.332458 20
-13.0793 4.75854 0.350054 12
-13.6575 5.00981 0.351434 12
-14.3236 5.24311 0.365403 13
-14.9454 5.46582 0.381298 9
-15.4439 5.62557 0.386089 10
-16.0604 5.83956 0.38202 11
-16.4357 6.03286 0.402776 12
-17.0068 6.22785 0.411393 17
-17.6189 6.42659 0.421025 13
-18.4519 6.71869 0.418956 13
-18.9886 6.9787 0.437307 12
-19.7854 7.25489 0.446095 17
-20.6835 7.5302 0.454712 14
-21.8376 7.96267 0.449071 14
-22.747 8.3389 0.467294 11
-23.8457 8.7504 0.481565 8
-20.5063 7.47557 0.773122 8
-20.5359 7.49365 0.847494 4
-20.5017 7.52597 0.924172 4
-20.5155 7.54243 0.999418 190
-20.508 7.56771 1.03704 6
-20.5139 7.48418 1.07765 34
-20.5072 7.55031 1.11393 5
-20.5411 7.50549 1.1524 10
-20.5205 7.55134 1.1898 10
-20.5294 7.54606 1.22787 9
-20.5402 7.54962 1.26566 10
-20.5282 7.557 1.30392 9
-20.5309 7.5821 1.34515 10
-20.5161 7.4949 1.38214 9
-20.5665 7.57804 1.41711 8
-20.6644 7.56054 1.45408 38
-20.607 7.58904 1.49264 5
-20.6154 7.58355 1.53095 9
-20.6163 7.58349 1.56924 3
-20.6025 7.59432 1.60743 3
-20.6434 7.60081 1.64519 3
nan nan nan nan
nan nan nan nan
nan nan nan nan
nan nan nan nan
nan nan nan nan
nan nan nan nan
-20.9227 7.7184 1.91599 1
-20.9149 7.71091 1.95107 1
-20.9151 7.68157 1.99042 3
-21.0734 7.7435 2.02939 3
-25.5898 9.38318 2.0829 4
-25.4317 9.45006 2.12771 15
-25.5087 9.3419 2.17754 30
-25.446 9.4246 2.22287 36
-25.4833 9.32204 2.27214 33
-25.4223 9.3851 2.31759 1
-25.4724 9.36298 2.36605 36
-25.1072 9.23844 2.40737 30
-25.1615 9.23325 2.45527 34
-24.9613 9.28249 2.49675 25
nan nan nan nan
nan nan nan nan
nan nan nan nan
-25.4096 9.35217 2.74278 30
-25.7433 9.46437 2.8483 14
-25.1501 9.22992 2.9224 31
-24.9393 9.1422 3.00746 29
-25.2221 9.37337 3.34737 37
-24.6364 9.10851 3.77556 10
-25.3716 9.39445 4.56453 25
-30.4097 11.249 5.93169 10
-17.3609 6.41153 5.04669 37
-17.3421 6.50917 5.88279 37
-18.052 6.71208 7.28211 25
nan nan nan nan
nan nan nan nan
nan nan nan nan
nan nan nan nan
nan nan nan nan
-9.2819 3.4272 0.267226 5
-10.3322 3.81154 0.286982 14
-11.2896 4.16487 0.317929 12
-12.2697 4.54538 0.33227 12
-13.0625 4.80409 0.34918 20
-13.6399 5.05737 0.350519 12
-14.3024 5.28629 0.365075 13
-14.9215 5.51616 0.380806 8
-15.4194 5.67765 0.385547 10
-16.0445 5.89722 0.380472 11
-16.4191 6.09185 0.401218 13
-16.9848 6.2871 0.410254 13
-17.5916 6.48625 0.420267 13
-18.4283 6.78298 0.417722 12
-18.9501 7.03965 0.437195 12
-19.7599 7.32383 0.444769 13
-20.6477 7.59883 0.454032 14
-21.8096 8.03877 0.44761 14
-22.7177 8.41818 0.46577 10
-23.815 8.83351 0.479968 6
-20.5035 7.55568 0.77034 5
-20.5189 7.56869 0.84559 4
-20.4846 7.60091 0.922303 3
-20.489 7.61394 0.998043 83
-20.4781 7.63388 1.03595 5
-20.5016 7.56087 1.07564 23
-20.4947 7.62703 1.11194 5
-20.5335 7.58403 1.15024 21
-20.5201 7.62442 1.18763 8
-20.5263 7.62633 1.22561 7
-20.5397 7.62277 1.26358 8
-20.525 7.63728 1.30174 7
-20.5197 7.65535 1.34339 5
-20.4992 7.56989 1.38048 9
-20.5493 7.65324 1.41546 5
-20.5629 7.60484 1.4547 12
-20.5877 7.65545 1.49128 4
-20.5934 7.65717 1.52946 10
-20.6064 7.65341 1.5677 4
-20.5758 7.66616 1.60605 3
-20.6589 7.68849 1.64307 3
nan nan nan nan
nan nan nan nan
nan nan nan nan
nan nan nan nan
nan nan nan nan
-20.9568 7.82699 1.87121 1
-20.891 7.78962 1.91461 1
-20.9347 7.80132 1.94955 3
-20.9116 7.76322 1.98901 3
-21.0509 7.81874 2.02798 3
-25.4491 9.43246 2.08085 4
-25.3975 9.51309 2.12639 29
-25.4384 9.41699 2.17558 29
-25.4022 9.49924 2.22121 30
-25.4272 9.40226 2.27019 30
-25.3988 9.47728 2.316 1
-25.0928 9.32296 2.35941 35
-24.9812 9.29116 2.40418 36
-25.0635 9.29668 2.45241 34
-24.9276 9.3443 2.49531 38
nan nan nan nan
nan nan nan nan
nan nan nan nan
-25.3112 9.41642 2.73916 28
nan nan nan nan
-25.1084 9.3142 2.92037 36
-24.9822 9.257 3.00882 20
-25.1692 9.44383 3.3446 34
-24.5392 9.17006 3.76919 11
-27.031 10.1164 4.73402 10
-30.2309 11.303 5.9116 10
nan nan nan nan
-17.3492 6.57415 5.88789 37
-18.0242 6.77356 7.27957 37
nan nan nan nan
nan nan nan nan
nan nan nan nan
nan nan nan nan
-8.28945 3.08257 0.228827 5
-9.28824 3.46638 0.263134 5
-10.3233 3.84923 0.285517 13
-11.275 4.20418 0.317171 11
-12.2553 4.58383 0.331528 11
-13.041 4.84785 0.348896 12
-13.6174 5.10313 0.350169 12
-14.2837 5.3361 0.364115 12
-14.9021 5.56813 0.379804 9
-15.3901 5.72789 0.385496 10
-16.0097 5.94791 0.380818 11
-16.407 6.15254 0.399202 12
-16.9487 6.34104 0.410432 12
-17.5594 6.54406 0.419931 13
-18.3997 6.84545 0.416889 13
-18.9206 7.10393 0.436309 12
-19.7248 7.38918 0.444182 14
-20.621 7.67078 0.452647 14
-21.7906 8.11825 0.445478 17
-22.6834 8.4956 0.464562 11
-23.7886 8.91825 0.478068 13
-20.5096 7.63934 0.766988 4
-20.5017 7.64369 0.843684 3
-20.4719 7.67756 0.920184 3
-20.4716 7.68887 0.996205 4
-20.4727 7.70516 1.03383 4
-20.4891 7.63758 1.07362 6
-20.4773 7.70199 1.11016 4
-20.5256 7.6626 1.14809 6
-20.512 7.70298 1.1855 6
-20.5276 7.70842 1.22316 5
-20.5504 7.70841 1.26084 6
-20.5169 7.71588 1.29972 5
-20.5236 7.7303 1.34124 5
-20.4773 7.64311 1.37896 5
-20.5364 7.73017 1.41367 5
-20.5502 7.68179 1.45295 4
-20.5796 7.73427 1.48943 4
-20.5853 7.73601 1.52764 4
-20.5983 7.73229 1.56592 3
-20.5817 7.75023 1.60403 3
-20.6393 7.75509 1.64174 3
nan nan nan nan
nan nan nan nan
nan nan nan nan
nan nan nan nan
nan nan nan nan
nan nan nan nan
-20.8777 7.86777 1.91314 3
-20.9008 7.86351 1.94831 5
-20.9967 7.87832 1.98752 10
-21.0469 7.90095 2.02659 3
-25.4534 9.53526 2.07926 4
-25.2486 9.56802 2.12397 17
-25.2696 9.45492 2.17296 17
-25.5543 9.66299 2.22101 35
-25.3427 9.47171 2.26794 34
-25.425 9.57818 2.31515 1
-25.1397 9.44038 2.35885 36
-24.9065 9.36247 2.40182 36
-24.9514 9.35427 2.4493 35
-24.7092 9.37084 2.48986 42
-24.7663 9.27376 2.53834 40
-24.7985 9.38438 2.58432 32
nan nan nan nan
-24.7824 9.31824 2.72303 33
nan nan nan nan
-24.7389 9.27553 2.90637 43
-24.7439 9.26707 2.99884 36
-25.1235 9.5369 3.34223 30
-26.4987 9.99737 3.91106 7
-27.0505 10.2207 4.73756 11
-30.0522 11.356 5.89152 6
nan nan nan nan
-17.3651 6.65665 5.89584 30
-17.9962 6.83494 7.27704 32
nan nan nan nan
-5.09812 1.8895 0.119182 4
nan nan nan nan
nan nan nan nan
-8.27396 3.10968 0.229257 7
-9.26218 3.49349 0.265112 9
-10.3005 3.88168 0.286368 14
-11.2555 4.24168 0.317109 13
-12.24 4.62437 0.330745 13
-13.0285 4.89501 0.347427 12
-13.5994 5.15056 0.349252 10
-14.2649 5.38585 0.363154 12
-14.8499 5.60774 0.382364 10
-15.37 5.7815 0.384461 10
-15.9935 6.00543 0.379268 11
-16.3807 6.20793 0.398554 12
-16.9171 6.39656 0.41017 13
-17.5318 6.60348 0.419172 13
-18.3663 6.90604 0.41646 14
-18.9003 7.17162 0.434647 13
-19.6988 7.45791 0.442854 12
-20.594 7.74263 0.451261 17
-21.7668 8.19594 0.443678 17
-22.6582 8.57641 0.462717 10
-23.6826 8.97287 0.481271 12
-20.5248 7.72665 0.763065 4
-20.4888 7.72043 0.841509 3
nan nan nan nan
-20.4446 7.76023 0.994826 9
nan nan nan nan
-20.4857 7.7178 1.07118 12
-20.4549 7.77515 1.10857 4
-20.5034 7.73592 1.14651 5
-20.5083 7.78335 1.18318 6
-20.5098 7.78353 1.22142 10
-20.528 7.78183 1.25929 5
-20.4992 7.79096 1.29801 4
-20.4978 7.79828 1.33992 115
-20.4364 7.70921 1.37802 5
-20.5513 7.81777 1.41108 211
-20.6215 7.79055 1.44892 6
-20.5898 7.82021 1.4871 179
-20.5862 7.81843 1.5256 8
-20.5992 7.81475 1.56393 3
-20.5685 7.82733 1.60237 3
-20.6368 7.83233 1.64001 3
nan nan nan nan
nan nan nan nan
nan nan nan nan
nan nan nan nan
nan nan nan nan
nan nan nan nan
-20.9342 7.97261 1.91137 3
-20.8699 7.93099 1.94698 3
-20.9644 7.94977 1.98611 5
-24.8664 9.43447 2.02923 3
-21.5952 8.17535 2.06632 3
-25.2197 9.65787 2.12228 34
-25.2365 9.54306 2.17126 36
-25.2122 9.63436 2.21667 38
-25.2393 9.53361 2.2655 36
-25.2203 9.59664 2.31141 3
-25.2047 9.56533 2.35855 37
-24.855 9.44225 2.39985 30
-24.7643 9.38284 2.44487 29
-24.7371 9.48029 2.48939 28
-24.7431 9.3637 2.53688 28
-24.7096 9.44948 2.58133 26
-24.7307 9.34863 2.62893 9
-24.6843 9.37984 2.71946 155
-24.6898 9.37156 2.81185 59
-24.6597 9.34415 2.90299 220
-24.6928 9.34634 2.99642 153
nan nan nan nan
-25.2208 9.61091 3.8196 13
-27.1142 10.3478 4.74572 11
-29.9245 11.4273 5.87807 17
-18.1231 6.90958 5.18936 31
-17.3557 6.72268 5.89775 34
-18.7018 7.1778 7.49017 35
nan nan nan nan
-5.08698 1.90554 0.120487 9
nan nan nan nan
nan nan nan nan
-8.26755 3.1402 0.227712 7
-9.24984 3.52572 0.264487 13
-10.2914 3.91929 0.2849 13
-11.2405 4.28087 0.31635 13
-12.2237 4.66699 0.329919 11
-13.0066 4.93862 0.347142 12
-13.5952 5.20325 0.346634 12
-14.246 5.43553 0.362192 12
-14.8394 5.66301 0.380344 11
-15.3496 5.83504 0.383425 10
-15.963 6.05761 0.37914 11
-16.3588 6.26499 0.397448 11
-16.8899 6.45371 0.409468 14
-17.5085 6.66456 0.41799 13
-18.3374 6.96826 0.415626 14
-18.8751 7.23747 0.43337 13
-19.6679 7.52477 0.441894 12
-20.5761 7.81794 0.449168 17
-21.724 8.26647 0.443217 17
-22.6281 8.65537 0.461188 10
-23.4646 8.98402 0.491698 14
-20.549 7.81771 0.758568 4
nan nan nan nan
nan nan nan nan
-20.4454 7.84223 0.99206 8
nan nan nan nan
-20.4025 7.76788 1.07236 9
-20.4742 7.86437 1.10514 4
-20.5089 7.81986 1.14375 5
-20.5416 7.87809 1.17936 5
-20.5525 7.88186 1.21736 9
-20.552 7.87305 1.25603 5
-20.5512 7.89288 1.29389 4
-20.539 7.90023 1.33619 107
-20.5495 7.83388 1.37233 210
-20.5192 7.88763 1.40982 245
-20.5241 7.8357 1.44942 211
-20.6931 7.94213 1.48242 163
-20.5447 7.88484 1.52454 6
-20.6091 7.90089 1.56174 3
-20.5737 7.91161 1.60034 3
-20.628 7.91145 1.63828 3
nan nan nan nan
nan nan nan nan
nan nan nan nan
nan nan nan nan
nan nan nan nan
nan nan nan nan
-20.8876 8.03844 1.91003 3
-20.9495 8.045 1.94527 3
-20.9319 8.0211 1.9847 6
nan nan nan nan
nan nan nan nan
-25.2791 9.78191 2.12101 37
-25.2077 9.63287 2.16959 34
-25.1411 9.70789 2.21465 34
-25.3133 9.66265 2.26491 32
-25.252 9.70973 2.3105 1
-25.1432 9.64251 2.35645 36
-24.8312 9.53254 2.39832 30
-24.7455 9.47459 2.44344 170
-24.7458 9.58283 2.48854 33
-24.757 9.46787 2.53621 24
-24.7278 9.5555 2.58086 21
-24.7774 9.46524 2.62927 10
-24.7635 9.50897 2.72105 169
-24.7596 9.49709 2.81355 16
-24.8183 9.50344 2.90832 130
-24.7488 9.46642 2.99833 202
nan nan nan nan
-26.542 10.2207 3.91564 7
-27.0781 10.4424 4.74389 31
-22.5959 8.71824 4.93033 33
-18.0622 6.95874 5.18164 19
-17.3642 6.79586 5.90375 35
-18.6724 7.24152 7.48758 32
nan nan nan nan
-5.0802 1.92321 0.120144 12
nan nan nan nan
nan nan nan nan
-8.25187 3.16721 0.228141 8
-9.24198 3.55968 0.262994 12
-10.2684 3.95156 0.285752 12
-11.2208 4.31822 0.316287 12
-12.2018 4.7099 0.329687 13
-12.9892 4.98391 0.346264 17
-13.5491 5.23984 0.349116 12
-14.2268 5.48515 0.361229 12
-14.8288 5.71827 0.378321 10
-15.3244 5.88672 0.38288 10
-15.9417 6.11321 0.378062 17
-16.3275 6.31839 0.397256 11
-16.8626 6.51076 0.408766 14
-17.4851 6.72556 0.416807 12
-18.3129 7.03215 0.414387 13
-18.8496 7.30324 0.432092 13
-19.6461 7.59509 0.440193 12
-20.5486 7.88964 0.447778 17
-21.6949 8.34217 0.441748 17
-22.6163 8.74142 0.458383 11
-23.2235 8.98476 0.503653 14
-20.5495 7.90007 0.755479 4
nan nan nan nan
-20.4787 7.92558 0.911319 3
nan nan nan nan
nan nan nan nan
-20.5058 7.88923 1.065 5
-20.5025 7.95744 1.10129 6
-20.542 7.91471 1.13982 5
-20.5466 7.96233 1.17666 5
-20.5574 7.96614 1.21471 6
-20.571 7.96273 1.25294 4
-20.5747 7.98441 1.29072 4
-20.5658 7.99715 1.33291 103
-20.5919 7.93248 1.36878 242
-20.5987 8.0008 1.40532 67
-20.5385 7.92345 1.4469 244
-20.7304 8.03957 1.47937 155
-20.545 7.96731 1.52249 6
-20.614 7.98538 1.55964 4
-20.6112 8.0087 1.59766 3
-20.6515 8.00326 1.63598 3
-20.6704 7.99772 1.67457 3
nan nan nan nan
nan nan nan nan
nan nan nan nan
nan nan nan nan
nan nan nan nan
-20.9013 8.12759 1.90843 3
-20.9399 8.1253 1.9438 3
-20.9504 8.11216 1.98323 5
-24.828 9.61865 2.0259 3
-25.2636 9.76697 2.07386 6
-25.2448 9.87008 2.1193 39
-25.2345 9.7442 2.16828 35
-25.1164 9.79922 2.21303 33
-25.2282 9.73116 2.26267 34
-25.2815 9.82758 2.30949 1
-25.2679 9.79165 2.35697 31
-24.8677 9.64628 2.39775 30
-24.8288 9.60603 2.44384 128
-24.7774 9.69464 2.48814 29
-24.8031 9.58486 2.53625 116
-24.7595 9.66721 2.5807 134
-24.7815 9.56608 2.62854 12
-24.7767 9.61345 2.72072 167
-24.7776 9.60335 2.81355 16
-24.8176 9.60266 2.90783 178
-24.7482 9.56538 2.99797 169
-23.0881 9.04214 3.23386 17
-26.4318 10.2844 3.90847 8
nan nan nan nan
-22.6487 8.82964 4.93961 29
-18.1529 7.0666 5.2007 26
nan nan nan nan
-18.6473 7.30687 7.48632 25
nan nan nan nan
-5.07336 1.94084 0.119801 12
-6.14795 2.37819 0.159889 6
nan nan nan nan
-8.24068 3.19591 0.227583 10
-9.22941 3.59184 0.262367 12
-7.22025 2.80804 0.795012 1
-11.2056 4.35728 0.315527 12
-12.1844 4.7545 0.328818 8
-12.9708 5.0314 0.34534 12
-13.5537 5.29607 0.345361 11
-14.2029 5.5329 0.360801 12
-14.804 5.76812 0.377826 10
-15.3119 5.94637 0.380806 10
-15.9016 6.16155 0.378883 17
-16.2867 6.36802 0.39798 11
-16.835 6.56769 0.408063 14
-17.4602 6.78952 0.415563 12
-18.2835 7.09415 0.413552 13
-18.8332 7.37255 0.430036 13
-19.6241 7.66536 0.438489 12
-20.5208 7.96124 0.446387 17
-21.6656 8.41777 0.440279 14
-22.5809 8.81842 0.457168 11
-23.0386 9.00574 0.512019 17
-20.5636 7.98796 0.751534 4
nan nan nan nan
nan nan nan nan
nan nan nan nan
-20.481 8.04462 1.02236 3
-20.5014 7.96976 1.06254 4
-20.4931 8.0362 1.09908 5
-20.5468 7.99901 1.13705 4
-20.5372 8.04124 1.17451 4
-20.5481 8.04509 1.2126 6
-20.5663 8.04354 1.25069 4
-20.556 8.05979 1.289 4
-20.5549 8.07974 1.33083 98
-20.5268 7.98977 1.36854 225
-20.6125 8.08905 1.4027 205
-20.6784 8.06044 1.44094 205
-20.8279 8.16107 1.47477 138
-20.5497 8.05171 1.52033 5
-20.6093 8.06637 1.55774 3
-20.6017 8.08787 1.59589 5
-20.65 8.08981 1.634 3
-20.6176 8.06429 1.67347 3
nan nan nan nan
nan nan nan nan
nan nan nan nan
nan nan nan nan
-20.9924 8.26467 1.86289 3
-20.9473 8.22973 1.90667 3
-20.9379 8.21293 1.94223 3
-20.9438 8.198 1.98172 4
-21.186 8.29243 2.02113 3
-25.2247 9.85326 2.07213 5
-25.2102 9.95813 2.11758 29
-25.1072 9.79588 2.16596 34
-25.0309 9.86666 2.21089 34
-25.2127 9.82642 2.26115 36
-25.2639 9.92749 2.30792 3
-25.2645 9.89696 2.35563 36
-24.8339 9.73303 2.39606 14
-24.7812 9.68718 2.44191 113
-24.7528 9.78475 2.48664 18
-24.7835 9.67684 2.53486 110
-24.7442 9.76093 2.57945 118
-24.776 9.66343 2.62756 128
-24.7647 9.71334 2.71963 133
-24.7626 9.69709 2.81248 16
-24.7933 9.69289 2.90649 178
-24.7473 9.66446 2.9976 12
-23.1029 9.14109 3.23477 15
-26.6541 10.4835 3.92536 10
-22.9134 9.02519 4.32506 34
-22.5948 8.89966 4.93507 23
-18.1329 7.13185 5.20028 20
-18.3711 7.3383 6.1392 30
-18.5189 7.33132 7.45464 33
nan nan nan nan
-5.06136 1.95851 0.121071 12
-6.13951 2.39956 0.159472 6
-7.2076 2.79721 0.194727 9
-8.22482 3.22279 0.228012 10
-9.1984 3.61675 0.265216 11
-7.22413 2.83859 0.792199 3
nan nan nan nan
-7.23615 2.85111 1.00885 1
-12.9513 5.08109 0.344371 14
-13.5166 5.33597 0.346709 5
-14.188 5.58418 0.359299 4
-14.7698 5.81421 0.378351 9
-15.3074 6.01231 0.377691 11
-15.8707 6.21331 0.378754 13
-16.2597 6.42292 0.39733 11
-16.8119 6.62634 0.406919 13
-17.4293 6.8546 0.414681 12
-18.2492 7.15421 0.413121 14
-18.8027 7.43633 0.429144 13
-19.6018 7.73557 0.436784 12
-20.4947 8.04171 0.444501 17
-21.6406 8.49509 0.438471 14
-22.536 8.89161 0.456589 14
-22.8166 9.01086 0.522817 6
-20.5374 8.06861 0.749714 4
nan nan nan nan
-20.4971 8.09758 0.90455 3
nan nan nan nan
nan nan nan nan
-20.4148 8.02643 1.06358 6
-20.4788 8.11316 1.09707 3
-20.528 8.07429 1.13526 4
-20.5462 8.12753 1.17161 4
-20.557 8.13142 1.20976 6
-20.5799 8.13176 1.24776 4
-20.5881 8.15537 1.28549 4
-20.5977 8.17548 1.32721 97
-20.6401 8.12524 1.36253 212
-20.6585 8.1904 1.39912 63
-20.6966 8.15086 1.43826 204
-20.7621 8.21897 1.4743 146
-20.5493 8.13439 1.51828 5
-20.6135 8.15109 1.55563 3
-20.6105 8.17445 1.59375 3
-20.6634 8.17837 1.63185 3
-20.647 8.16728 1.67095 3
nan nan nan nan
nan nan nan nan
-20.9891 8.36583 1.78218 3
-21.2091 8.35464 1.82162 3
-20.968 8.33972 1.86143 3
-20.9045 8.29725 1.9053 3
nan nan nan nan
-20.9401 8.28938 1.98012 3
-21.208 8.38655 2.01973 4
-25.1855 9.93941 2.07041 6
-24.9524 9.95714 2.11486 29
-25.0496 9.87429 2.1641 29
nan nan nan nan
nan nan nan nan
-25.2216 10.0075 2.30617 1
-25.2682 10.0105 2.35432 36
-24.7998 9.81966 2.39437 25
-24.7798 9.78648 2.4408 107
-24.7417 9.88037 2.4854 43
-24.7729 9.77247 2.53368 12
-24.7333 9.8565 2.57831 10
-24.7747 9.7627 2.6267 10
-24.7505 9.81759 2.71845 14
-24.7519 9.79269 2.81155 15
-24.7687 9.78307 2.90514 23
-24.7228 9.75448 2.99629 9
-23.0477 9.21245 3.23195 15
-24.9623 9.91884 3.80397 34
-21.795 8.67267 4.21312 14
-26.5438 10.563 5.45124 18
nan nan nan nan
-18.2413 7.36044 6.11438 30
-18.4755 7.38897 7.44808 39
nan nan nan nan
-5.05 1.97437 0.122376 12
-6.13548 2.42266 0.157701 14
-7.20223 2.82405 0.193093 13
-8.21343 3.2514 0.227453 11
nan nan nan nan
-7.16821 2.84552 0.799451 3
-7.18022 2.85007 0.919551 3
-7.20306 2.86713 1.01154 1
-12.9343 5.12393 0.343534 4
nan nan nan nan
nan nan nan nan
-14.7494 5.86566 0.377344 9
-15.2642 6.05379 0.379166 17
-15.8488 6.26859 0.377674 11
-16.2313 6.48055 0.396625 11
-16.784 6.68306 0.406214 12
-17.4018 6.91045 0.413978 12
-18.2148 7.21411 0.412689 14
-18.7693 7.50654 0.428122 14
-19.5607 7.79833 0.436562 12
-20.4571 8.10944 0.443814 17
-21.5968 8.56498 0.438008 14
-22.531 8.98516 0.453061 14
-21.6631 8.64284 0.594321 6
-20.5276 8.14756 0.747178 4
nan nan nan nan
nan nan nan nan
nan nan nan nan
nan nan nan nan
-20.5166 8.14923 1.05618 5
-20.4875 8.19939 1.09402 5
-20.5368 8.16062 1.13228 5
-20.5501 8.21212 1.16889 5
-20.5534 8.22137 1.20714 5
-20.5792 8.21462 1.24533 4
-20.5827 8.23643 1.28327 4
-20.5922 8.25659 1.32504 20
-20.6348 8.20644 1.3604 207
-20.6436 8.268 1.3973 159
-20.668 8.22302 1.43685 204
-20.6543 8.25982 1.47491 146
-20.6618 8.27077 1.51332 5
-20.6685 8.25634 1.5524 3
-20.6514 8.2742 1.59095 3
-20.6533 8.25784 1.6301 3
-20.6662 8.25422 1.66886 3
nan nan nan nan
-21.1032 8.40245 1.74156 3
-20.8948 8.41289 1.78143 3
-21.0776 8.38794 1.82106 3
-20.9481 8.41657 1.85993 3
-20.9636 8.40551 1.90346 3
nan nan nan nan
nan nan nan nan
-24.8513 9.92816 2.02093 23
-24.8163 9.89388 2.06781 31
-24.7923 9.99372 2.1126 35
nan nan nan nan
nan nan nan nan
nan nan nan nan
nan nan nan nan
-25.402 10.1611 2.355 36
-24.7515 9.9006 2.39246 36
nan nan nan nan
nan nan nan nan
nan nan nan nan
nan nan nan nan
nan nan nan nan
-24.7688 9.92007 2.71832 43
-24.8151 9.91801 2.81305 38
-24.7252 9.86579 2.90311 32
-22.8367 9.10262 2.92012 11
-23.0247 9.29662 3.23087 12
-23.6267 9.48374 3.70824 17
-22.0002 8.84347 4.23557 31
-26.576 10.6835 5.45842 12
nan nan nan nan
-18.1703 7.40576 6.10288 31
-18.584 7.50782 7.48647 41
nan nan nan nan
-5.04737 1.99364 0.120384 13
-6.13137 2.44577 0.155928 24
-7.18771 2.8473 0.193748 13
-8.19739 3.27815 0.227881 10
-7.12838 2.86538 0.65255 6
-7.149 2.86679 0.800512 11
-7.13751 2.86342 0.923923 1
-7.13315 2.86816 1.01933 3
nan nan nan nan
nan nan nan nan
-7.13637 2.86845 1.17476 3
-14.7369 5.9233 0.375265 3
-15.266 6.11621 0.375657 8
-15.8083 6.3164 0.378497 17
-16.1924 6.53715 0.396781 11
-16.75 6.74074 0.405893 12
-17.3775 6.97107 0.412789 12
-18.1894 7.27757 0.411447 14
-18.7402 7.57846 0.42671 13
-19.5226 7.86616 0.435902 13
-20.4147 8.17516 0.44348 23
-21.5251 8.62353 0.439566 12
-21.5568 8.6928 0.516255 6
-21.5433 8.68665 0.598508 5
-20.4804 8.21166 0.746916 4
nan nan nan nan
-20.4944 8.27892 0.898223 3
-20.4858 8.27049 0.976054 5
nan nan nan nan
-20.4462 8.204 1.05671 5
-20.5142 8.29328 1.09014 3
-20.5452 8.2471 1.1293 4
-20.5723 8.30432 1.1654 4
-20.5726 8.32078 1.20361 4
-20.5782 8.29757 1.24289 4
-20.5815 8.31941 1.28089 4
-20.5817 8.33588 1.32302 6
-20.6014 8.27651 1.35913 180
-20.5868 8.32872 1.39671 12
-20.6345 8.29321 1.43557 103
-20.6253 8.33183 1.47349 13
-20.6159 8.34438 1.5121 4
-20.6488 8.33214 1.55078 3
-20.627 8.34808 1.58945 3
-20.6753 8.35046 1.62776 3
nan nan nan nan
nan nan nan nan
nan nan nan nan
-20.8838 8.49328 1.7798 3
nan nan nan nan
nan nan nan nan
-21.0036 8.50677 1.90169 3
-20.9944 8.4898 1.9375 3
-25.6214 10.3452 1.9715 4
-24.9787 10.0803 2.01934 4
-24.8466 10.0066 2.06628 6
nan nan nan nan
nan nan nan nan
nan nan nan nan
-25.5178 10.2647 2.26 29
nan nan nan nan
-25.5379 10.319 2.35563 13
nan nan nan nan
nan nan nan nan
nan nan nan nan
-25.4101 10.2396 2.54529 35
-25.4928 10.3659 2.59417 20
-25.2219 10.1531 2.63621 43
-24.9102 10.0777 2.72171 30
-24.7711 10.0008 2.81105 30
nan nan nan nan
-22.9824 9.26311 2.92567 10
nan nan nan nan
-23.5935 9.56621 3.70662 36
-21.9048 8.89407 4.22749 32
-21.7742 8.84093 4.83576 23
-25.16 10.2106 6.45538 9
-18.1084 7.45441 6.09344 30
-18.5509 7.57754 7.48375 28
nan nan nan nan
-5.04029 2.01116 0.12004 12
-6.1227 2.46707 0.155509 22
-7.17764 2.87229 0.193257 14
-7.06771 2.85558 0.470797 4
-7.1208 2.88399 0.652184 8
-7.08852 2.87129 0.808548 8
-7.06877 2.86163 0.93256 3
-7.06331 2.86873 1.02714 3
-7.04366 2.84661 1.0978 4
-7.06452 2.87333 1.13426 3
-7.08942 2.87837 1.17858 3
-7.14526 2.89836 1.21422 3
nan nan nan nan
-15.786 6.37147 0.377416 6
-16.1659 6.57571 0.396867 5
-16.7333 6.79513 0.404419 12
-17.353 7.03161 0.4116 13
-18.1592 7.33908 0.410608 14
-18.7216 7.62418 0.42581 14
-19.4931 7.9255 0.435071 14
-20.386 8.24629 0.442084 17
-21.541 8.71726 0.434721 9
-21.3613 8.6834 0.52691 6
-21.5436 8.7655 0.595365 5
-20.521 8.31115 0.74124 4
-20.5621 8.32702 0.81629 3
-20.5142 8.34944 0.894917 3
-20.4966 8.34983 0.972927 4
-20.4928 8.37706 1.01079 4
-20.4545 8.29028 1.05359 4
-20.4851 8.36479 1.08874 4
-20.558 8.33562 1.12611 4
-20.5477 8.37792 1.1638 4
-20.5554 8.37646 1.20238 4
-20.5907 8.38627 1.23994 4
-20.6062 8.40475 1.27783 4
-20.608 8.43034 1.31976 5
nan nan nan nan
-20.6177 8.42508 1.39351 5
-20.6563 8.38584 1.43275 7
nan nan nan nan
-20.6495 8.42094 1.50971 6
-20.6983 8.43621 1.54763 3
-20.6377 8.42793 1.58743 3
nan nan nan nan
nan nan nan nan
nan nan nan nan
nan nan nan nan
-20.8725 8.5737 1.77817 3
-26.7029 10.8423 1.76813 3
-26.6487 10.9232 1.81677 7
nan nan nan nan
-25.7184 10.5048 1.92086 16
-25.6471 10.4546 1.96975 8
nan nan nan nan
-27.3494 11.1261 2.07088 8
-27.2747 11.2159 2.12019 20
-27.3537 11.1145 2.17406 24
-27.3284 11.2154 2.22378 18
-25.5457 10.3693 2.25903 24
-27.4108 11.2098 2.32827 3
nan nan nan nan
-25.9408 10.5871 2.40879 22
-26.0975 10.6243 2.46068 19
-25.7604 10.6011 2.50212 10
-25.5214 10.3778 2.54679 29
-25.3224 10.3998 2.58931 33
-25.1806 10.2286 2.63442 37
-24.9322 10.183 2.72169 36
-24.7592 10.0967 2.81011 36
-24.5123 9.97981 2.8945 28
-22.9023 9.31458 2.92221 14
-25.005 10.2997 3.33699 16
-23.5647 9.65046 3.70534 20
nan nan nan nan
-26.9145 11.0387 5.50868 13
-25.0961 10.2766 6.44816 9
nan nan nan nan
-18.5139 7.63047 7.47864 20
nan nan nan nan
-5.03386 2.02691 0.11973 13
-6.11396 2.48835 0.15509 22
-7.16748 2.89725 0.192766 17
-7.02131 2.86537 0.478233 5
-7.11416 2.9131 0.650776 6
-7.07382 2.89409 0.808837 9
-7.08567 2.89872 0.92786 3
-7.06697 2.89897 1.02474 3
-6.99787 2.85368 1.10212 1
-7.02225 2.88471 1.13775 3
-7.01029 2.8748 1.18617 3
-7.08392 2.90375 1.21934 3
-7.07214 2.88705 1.24812 5
-7.14105 2.90906 1.2681 3
-7.03646 2.89536 1.30405 1
-16.699 6.85255 0.404097 11
-17.3307 7.08602 0.410529 13
-18.1334 7.40234 0.409363 14
-18.6921 7.69592 0.424396 14
-19.4685 7.99871 0.433293 20
-20.3599 8.31023 0.440825 20
-21.3257 8.71679 0.446744 11
-21.2508 8.72933 0.530814 5
nan nan nan nan
-20.8043 8.50206 0.720862 4
-20.5698 8.41381 0.812737 3
-20.5112 8.43591 0.891934 3
-20.4829 8.43601 0.970446 3
-17.6702 7.29521 1.14523 3
-20.4514 8.3639 1.05125 4
-17.8188 7.34831 1.20557 1
nan nan nan nan
-17.7184 7.29708 1.27727 1
-20.5753 8.47262 1.1989 4
-20.5844 8.46755 1.23766 3
-20.5922 8.49139 1.27561 4
-20.6246 8.52127 1.31681 4
-20.657 8.45835 1.35295 8
-20.6436 8.51985 1.39045 6
nan nan nan nan
nan nan nan nan
-20.6971 8.5289 1.50633 5
-20.7195 8.5293 1.54508 3
-20.7161 8.55286 1.58362 3
nan nan nan nan
nan nan nan nan
nan nan nan nan
-20.9724 8.60582 1.73776 3
-25.4148 10.5424 1.72704 3
-25.5176 10.465 1.77649 4
-26.6012 11.0123 1.815 24
nan nan nan nan
-26.9942 11.136 1.9148 16
-25.6511 10.5503 1.96811 16
-27.1917 11.195 2.01709 15
-27.2688 11.2043 2.06891 8
-27.2215 11.3053 2.11825 22
-27.287 11.1986 2.17201 24
-27.2522 11.2954 2.2216 18
-27.2858 11.1866 2.27501 22
-27.2698 11.2634 2.32518 3
-27.2322 11.2088 2.37658 12
-26.1349 10.7729 2.41061 19
-26.0187 10.6983 2.45816 19
-25.7279 10.6929 2.50044 10
-25.7116 10.5598 2.54986 10
-25.3322 10.5073 2.58864 17
-25.0893 10.2936 2.6313 28
-24.9879 10.2975 2.72268 35
nan nan nan nan
-24.4728 10.0634 2.89265 31
-22.9159 9.41348 2.92249 29
nan nan nan nan
-22.3093 9.22739 3.61529 25
-23.1163 9.57463 4.35425 21
-22.0562 9.13546 4.87767 11
-24.9828 10.3323 6.43267 9
-29.9111 12.5572 8.77977 4
-18.4785 7.69156 7.47472 29
nan nan nan nan
-5.02702 2.04351 0.119403 13
-6.11404 2.51325 0.15196 19
-7.15723 2.92217 0.192275 17
-6.99306 2.88233 0.481712 17
-6.93095 2.86642 0.683363 5
-7.14123 2.95076 0.795164 8
-6.90615 2.85344 0.953231 3
-6.96972 2.88751 1.03638 3
-6.96996 2.86926 1.10404 3
-6.97998 2.89582 1.14125 3
-6.99098 2.89541 1.18676 3
-7.02774 2.9094 1.22397 1
-7.02569 2.89528 1.25161 1
-7.12161 2.93014 1.26856 3
-7.00788 2.91223 1.30541 1
nan nan nan nan
-17.3024 7.14147 0.409821 12
-18.1074 7.46551 0.408117 14
-18.6604 7.75913 0.423498 13
-19.4219 8.05889 0.433443 12
-20.3184 8.37192 0.440562 14
nan nan nan nan
-17.7219 7.35257 0.77265 8
-17.6821 7.34232 0.84214 6
-17.7627 7.32761 0.905961 6
-17.8363 7.36793 0.968467 9
-17.7513 7.37372 1.03904 5
-17.6171 7.32782 1.11264 3
-17.6446 7.35679 1.14401 6
-17.6855 7.30105 1.1779 0
-17.5671 7.31628 1.2145 3
-17.8309 7.37466 1.238 1
-17.4898 7.27446 1.2844 3
-17.8003 7.40305 1.30528 1
-17.6981 7.35281 1.34296 3
-20.6131 8.5843 1.27239 3
-17.7351 7.39993 1.41101 1
nan nan nan nan
nan nan nan nan
-20.6896 8.56803 1.42733 34
-20.7169 8.62213 1.46456 4
-20.7087 8.61834 1.5039 4
-20.7404 8.62265 1.54253 3
-20.6999 8.63086 1.58191 3
-25.5392 10.6274 1.53206 3
-25.3249 10.5068 1.58456 3
nan nan nan nan
-25.5191 10.5766 1.67793 3
-25.4055 10.6426 1.72498 3
-26.4417 10.9518 1.76612 18
-26.558 11.1031 1.8132 22
-26.543 11.075 1.86889 19
-26.7844 11.159 1.91351 16
-26.9413 11.1856 1.96454 16
-27.1524 11.2898 2.01522 18
-27.2387 11.3033 2.06705 8
-27.1911 11.4041 2.11641 10
-27.257 11.2976 2.17019 14
-27.208 11.3885 2.21968 8
-27.265 11.2895 2.27332 16
-27.1796 11.3374 2.32271 3
-26.9687 11.205 2.37171 12
-26.1479 10.8852 2.4096 13
-26.0228 10.8063 2.4571 19
-25.6997 10.7865 2.49884 10
-25.827 10.7127 2.55133 13
-25.3461 10.6169 2.58806 23
-25.2241 10.452 2.63385 23
-24.9906 10.3956 2.72211 30
nan nan nan nan
-24.4422 10.1507 2.89113 25
-22.8461 9.47812 2.91943 33
-23.5652 9.89969 3.26047 31
-22.2678 9.30141 3.61309 30
-22.913 9.58427 4.33533 17
-21.9373 9.17609 4.86478 34
nan nan nan nan
-29.863 12.6598 8.77668 4
-18.4208 7.74316 7.4642 32
nan nan nan nan
-5.01976 2.06097 0.119057 12
-6.10514 2.5345 0.151539 16
-7.14689 2.94705 0.191783 17
-6.96931 2.90101 0.484202 14
-6.88903 2.87726 0.68898 5
-7.14907 2.98322 0.791567 6
-6.84583 2.85652 0.960446 3
-6.91838 2.89454 1.04165 3
-6.91402 2.87447 1.10952 3
-6.92856 2.90284 1.1459 3
-6.9441 2.90443 1.19059 3
-6.9808 2.91853 1.22758 3
-7.01091 2.91784 1.25162 1
-7.00561 2.91097 1.27905 3
-7.04355 2.95589 1.30032 3
-6.99344 2.92735 1.33231 1
-17.2773 7.20175 0.408628 6
-18.0627 7.52093 0.408496 14
-17.4841 7.34183 0.519857 8
-17.5266 7.34426 0.583592 10
-17.5769 7.31395 0.648551 9
-17.5855 7.33091 0.713996 75
-17.6086 7.3777 0.777523 7
-17.6057 7.38271 0.844258 10
-17.6125 7.33767 0.912455 5
-17.6215 7.35124 0.978245 5
-17.6103 7.38731 1.0441 5
-17.5822 7.38535 1.11189 4
-17.6233 7.42023 1.14257 5
-17.5262 7.30693 1.18295 3
-17.417 7.3252 1.2189 3
-17.6022 7.35205 1.24552 3
-17.3583 7.29094 1.28757 3
-17.6131 7.3974 1.3104 3
-17.5295 7.35459 1.3471 3
-17.6671 7.42994 1.37484 3
-17.5388 7.38996 1.41551 3
nan nan nan nan
-20.7494 8.7335 1.38263 14
-20.7149 8.66332 1.42436 28
nan nan nan nan
nan nan nan nan
-25.0383 10.5117 1.44442 3
-25.2771 10.6429 1.48615 3
-25.6356 10.7726 1.52782 3
-25.5859 10.7252 1.57774 17
-25.9193 10.8754 1.62097 3
-25.5051 10.6752 1.67587 3
-25.3958 10.7429 1.72292 16
nan nan nan nan
-26.3072 11.1063 1.81289 36
-26.4857 11.1598 1.86715 36
-26.478 11.14 1.91257 34
-26.8632 11.2688 1.96264 16
-27.0852 11.3729 2.01333 29
-27.4758 11.5143 2.0658 10
-29.3888 12.4463 2.12374 33
-29.4821 12.3403 2.18209 34
-29.457 12.4508 2.23593 25
-29.5134 12.3412 2.29402 20
-29.522 12.4356 2.34876 1
-29.5089 12.3876 2.40495 11
-25.9945 10.928 2.40601 23
-26.031 10.9164 2.4561 29
-25.2983 10.7221 2.49005 35
-22.8246 9.5612 2.48663 6
nan nan nan nan
-25.146 10.5226 2.63107 12
-23.0816 9.70079 2.66645 12
-24.3067 10.2103 2.79374 30
-24.4112 10.2379 2.88961 30
-22.8221 9.56169 2.91822 25
-23.5214 9.97802 3.25835 20
-22.2951 9.40435 3.61588 31
-22.0128 9.29816 4.24533 28
-21.8733 9.23919 4.85908 36
-24.5604 10.3592 6.36694 12
-29.774 12.745 8.76437 5
nan nan nan nan
nan nan nan nan
-5.01244 2.07839 0.118712 13
-6.09172 2.55385 0.152473 16
-7.13198 2.97003 0.192436 13
-6.95906 2.92526 0.483721 5
-6.86073 2.89359 0.691988 6
-7.13855 3.0081 0.791073 10
-6.83577 2.88035 0.959973 4
-6.87164 2.90319 1.04628 3
-6.87644 2.88701 1.11261 3
-6.88123 2.91267 1.14995 3
-6.88808 2.9093 1.19551 3
-6.90179 2.91383 1.23478 3
-6.91809 2.90754 1.26005 3
-6.93572 2.91031 1.28477 3
-6.91395 2.92996 1.31181 1
-6.90975 2.92069 1.33891 3
nan nan nan nan
-17.4713 7.34616 0.457333 6
-17.3757 7.36773 0.525683 31
-17.4043 7.36452 0.590222 32
-17.4639 7.33848 0.654098 17
-17.5965 7.40768 0.710073 34
-17.4218 7.37104 0.787547 29
-17.3729 7.3565 0.85671 10
-17.4303 7.33322 0.920968 29
-17.4899 7.36805 0.983209 6
-17.3866 7.36496 1.05369 8
-17.6206 7.47394 1.10739 5
-17.5927 7.4797 1.14157 9
-17.4775 7.35833 1.18282 5
-17.2902 7.34293 1.22227 3
-17.4291 7.35125 1.25067 3
-17.2315 7.30855 1.29056 3
-17.3847 7.37299 1.31718 3
-17.3702 7.35918 1.3509 3
-17.5122 7.43684 1.37822 3
-17.4071 7.40609 1.41785 3
nan nan nan nan
-25.0838 10.6617 1.24997 5
nan nan nan nan
-25.359 10.7614 1.33829 4
nan nan nan nan
-25.0383 10.6146 1.44186 3
-25.2351 10.729 1.4845 3
-25.8095 10.9518 1.52209 6
-25.8613 10.947 1.57073 30
-25.9456 10.9931 1.61821 17
-25.5045 10.7797 1.67363 19
-25.4271 10.8609 1.72039 33
-25.4434 10.7471 1.77088 32
-26.3556 11.2353 1.81043 36
-26.4282 11.2443 1.86541 36
-26.4113 11.2206 1.91083 31
-26.8514 11.3742 1.96074 26
-27.0454 11.4674 2.01146 29
-29.2358 12.3722 2.0679 20
-29.3176 12.537 2.12159 37
-29.3421 12.4023 2.17947 31
-29.4272 12.5594 2.23399 30
-29.4932 12.4539 2.29221 23
-29.6441 12.6091 2.34865 1
-26.1421 11.0816 2.35775 12
-25.8688 10.9815 2.40286 17
-25.9467 10.9877 2.4535 0
-25.8399 11.0581 2.49943 20
-25.876 10.9453 2.5504 23
nan nan nan nan
nan nan nan nan
-22.9493 9.74431 2.66199 23
-24.3768 10.34 2.7955 27
-24.3846 10.327 2.88826 30
-24.3256 10.2915 2.97836 19
-22.1322 9.48013 3.18432 17
-22.3265 9.50954 3.61899 29
-22.6626 9.66604 4.31346 31
nan nan nan nan
-24.5425 10.4527 6.36847 17
-29.3163 12.6705 8.66822 8
nan nan nan nan
nan nan nan nan
-5.00469 2.09666 0.118349 13
-6.08177 2.57713 0.152009 19
-6.88824 2.89661 0.251549 5
-6.89007 2.9246 0.496125 9
-6.87771 2.92902 0.686284 12
-6.8734 2.9247 0.834071 5
-6.86206 2.91965 0.953901 5
-6.84317 2.91933 1.04837 3
-6.84292 2.90245 1.11509 3
-6.84256 2.92729 1.15285 3
-6.84583 2.91965 1.19881 3
-6.85494 2.92227 1.23841 3
-6.8753 2.91922 1.26301 3
-6.90716 2.92669 1.2862 3
-6.89907 2.95209 1.31179 3
-6.97277 2.97604 1.33134 4
-6.90528 2.9369 1.36468 1
-17.3538 7.36806 0.464274 3
-17.2948 7.40472 0.529172 10
-17.3142 7.39774 0.594247 28
-17.3266 7.35558 0.661376 9
-17.3272 7.36551 0.72681 14
-17.3087 7.39451 0.792447 12
-17.3012 7.39741 0.858546 12
-17.316 7.35989 0.925144 12
-17.3216 7.36839 0.99034 8
-17.2689 7.38629 1.05752 6
-17.6127 7.54321 1.10523 10
nan nan nan nan
-17.3677 7.38709 1.18545 4
-17.1287 7.35206 1.22699 3
-17.3022 7.36891 1.25385 4
-17.238 7.38238 1.28803 3
-17.2808 7.40016 1.31907 3
-17.2801 7.39222 1.35212 3
-17.3345 7.4329 1.38244 3
-17.2571 7.41351 1.42084 3
-24.951 10.626 1.20608 3
-24.9462 10.7164 1.25097 3
-25.1225 10.7141 1.29546 10
-25.2707 10.8282 1.33786 4
-25.4787 10.9171 1.38074 8
-25.5847 10.9517 1.42697 13
-25.1929 10.8151 1.48284 12
-25.3024 10.841 1.52909 30
-25.3981 10.8608 1.57597 34
-25.5172 10.9273 1.62201 30
-25.5586 10.9079 1.67066 37
-25.4074 10.9575 1.71842 33
-25.4195 10.8417 1.76899 37
-25.5584 11.001 1.8142 33
-26.3704 11.3286 1.86367 36
-26.3996 11.3245 1.9089 36
-26.3866 11.2915 1.95948 37
-27.0057 11.5731 2.00939 33
-27.1879 11.6173 2.06155 23
-23.0948 9.97224 2.0949 8
-23.1455 9.87907 2.14074 8
-23.1797 9.98914 2.18354 5
-29.5416 12.596 2.29106 11
nan nan nan nan
nan nan nan nan
-23.4834 10.0752 2.36474 9
nan nan nan nan
-24.9016 10.7597 2.48037 10
-25.7044 10.9787 2.54578 12
-22.3876 9.65464 2.51731 30
-22.4054 9.56013 2.56107 25
-22.7022 9.73773 2.65425 17
-24.5978 10.5352 2.80218 27
nan nan nan nan
-22.8744 9.77187 2.91986 30
-22.067 9.54349 3.18106 30
nan nan nan nan
-23.0952 9.94602 4.35954 20
-22.342 9.6217 4.92593 23
-24.5288 10.5483 6.3708 28
-29.3575 12.8102 8.6856 4
nan nan nan nan
nan nan nan nan
-4.9929 2.1122 0.119653 12
-6.06822 2.59637 0.152944 22
-6.86008 2.91294 0.255659 5
-6.81216 2.91964 0.510521 8
-6.82666 2.93546 0.693652 48
-6.81771 2.92913 0.841364 6
-6.81539 2.9279 0.959025 4
-6.79646 2.92746 1.05301 3
-6.7962 2.91063 1.11939 3
-6.79629 2.93417 1.15696 3
-6.79446 2.92582 1.20319 3
-6.79898 2.92648 1.24306 3
-6.81473 2.92159 1.26799 3
-6.82367 2.91939 1.29338 3
-6.82012 2.94653 1.31822 3
-6.81594 2.93727 1.34505 1
-6.86801 2.94795 1.36678 3
nan nan nan nan
-17.0491 7.37007 0.546763 3
-17.128 7.38894 0.606136 8
-17.177 7.36289 0.669798 4
-17.2463 7.40226 0.729676 9
-17.214 7.42519 0.79607 6
-17.0645 7.36672 0.871347 4
-17.1847 7.37494 0.930539 6
-17.2086 7.3913 0.994256 6
-17.1971 7.42668 1.05885 4
-17.082 7.38656 1.12983 4
-16.9809 7.35989 1.16672 3
-17.0663 7.32933 1.19727 4
-17.0571 7.39189 1.22789 3
-17.1157 7.36011 1.25964 3
-17.1066 7.39687 1.29122 3
-17.131 7.40687 1.32279 3
-17.1716 7.41679 1.35405 3
-17.1892 7.44171 1.38552 3
-17.199 7.45975 1.42072 3
-17.2739 7.42728 1.44959 3
-17.2423 7.47742 1.48155 3
-25.0666 10.7938 1.29423 8
-24.9345 10.7873 1.34399 13
-25.4266 11 1.37931 13
-25.2434 10.9101 1.43205 31
-25.1366 10.8949 1.48146 34
-25.2644 10.9292 1.52733 28
-25.103 10.8383 1.57855 30
-25.5247 11.0361 1.61954 31
nan nan nan nan
-25.3873 11.054 1.71644 32
-25.4045 10.9402 1.76701 34
-25.4079 11.0468 1.81315 32
nan nan nan nan
nan nan nan nan
-26.4205 11.4153 1.95752 39
-26.4513 11.4448 2.00743 34
-26.8166 11.5695 2.05897 29
-26.6076 11.5988 2.10722 36
nan nan nan nan
-23.0724 10.0481 2.18123 25
nan nan nan nan
-22.5556 9.78034 2.26354 3
nan nan nan nan
-23.3472 10.1134 2.36155 13
-23.4232 10.1121 2.40759 23
-23.338 10.1811 2.4494 14
-22.7922 9.82939 2.48334 10
-22.3046 9.72057 2.51454 19
-22.2801 9.59874 2.55723 25
-22.4222 9.70573 2.64564 23
-24.5105 10.5992 2.79883 30
-22.8393 9.86133 2.83138 14
-22.8861 9.87147 2.92011 28
-21.5285 9.40447 3.15253 31
-21.5047 9.33741 3.56109 30
nan nan nan nan
-22.2174 9.66014 4.91244 33
nan nan nan nan
-29.5503 13.0298 8.73853 4
nan nan nan nan
nan nan nan nan
-4.9854 2.12953 0.119307 12
-6.05902 2.61745 0.152521 16
-6.83637 2.93103 0.258623 5
-6.77037 2.92973 0.516991 6
-6.73049 2.922 0.709744 12
-6.7565 2.93361 0.849392 4
-6.74603 2.92602 0.967657 3
-6.73965 2.93369 1.05889 3
-6.75406 2.9205 1.12309 3
-6.74044 2.93797 1.1622 3
-6.74313 2.93167 1.20758 3
-6.75219 2.9343 1.2467 3
-6.7725 2.93148 1.27099 3
-6.78143 2.92933 1.29625 3
-6.77325 2.95437 1.32144 3
-6.79648 2.95704 1.34546 3
-6.80737 2.95008 1.37099 3
-6.83895 2.95773 1.39571 1
-6.79374 2.96679 1.42296 1
-17.0015 7.40481 0.613179 4
-17.0001 7.35735 0.680376 8
-17.0235 7.37702 0.743071 4
-17.0095 7.4075 0.807434 8
