# .PCD v0.7 - Point Cloud Data file format
VERSION 0.7
FIELDS x y z intensity
SIZE 4 4 4 4
TYPE F F F F
COUNT 1 1 1 1
WIDTH 1863
HEIGHT 1
VIEWPOINT 0 0 0 1 0 0 0
POINTS 1863
DATA ascii
2.86602 0.252116 0.948861 37
2.89225 0.251533 1.13647 41
2.82445 0.256535 1.28718 54
2.91959 0.254211 1.36039 43
2.92951 0.255622 1.43227 43
2.98882 0.262729 1.47942 55
2.95213 0.26172 1.53263 39
3.84952 0.339759 1.43603 6
3.82873 0.347563 1.47277 9
3.83205 0.340437 1.49283 8
3.83505 0.339979 1.51613 8
3.81289 0.340158 1.53977 25
3.79897 0.345935 1.55468 41
3.8049 0.350814 1.56725 13
3.78798 0.334993 1.58287 37
3.75954 0.335451 1.59919 14
3.74539 0.341138 1.61371 6
3.73632 0.344626 1.62831 5
3.72901 0.329794 1.6418 4
3.72015 0.331989 1.65563 4
3.70047 0.341034 1.6702 5
3.70638 0.341941 1.68261 4
3.72338 0.333283 1.69438 5
3.7444 0.334872 1.70572 5
3.74445 0.345122 1.71858 5
3.75013 0.346648 1.73121 5
3.78691 0.33907 1.74196 5
3.78301 0.337719 1.75545 6
3.77865 0.335171 1.76237 4
3.76784 0.347985 1.76936 5
nan nan nan nan
nan nan nan nan
nan nan nan nan
nan nan nan nan
nan nan nan nan
nan nan nan nan
nan nan nan nan
nan nan nan nan
nan nan nan nan
nan nan nan nan
19.8772 1.79014 1.14827 3
19.9231 1.79934 1.18112 3
20.1085 1.81766 1.20868 3
20.1963 1.80583 1.24093 3
20.4549 1.84494 1.26672 3
20.7881 1.89119 1.29086 3
nan nan nan nan
nan nan nan nan
nan nan nan nan
54.9958 5.08863 0.502446 9
55.2405 4.90952 0.595803 4
nan nan nan nan
nan nan nan nan
nan nan nan nan
nan nan nan nan
nan nan nan nan
nan nan nan nan
nan nan nan nan
110.792 9.85004 0.733654 8
47.5048 4.40864 1.53909 23
47.5416 4.28877 1.62378 3
47.5673 4.34353 1.70614 20
47.5682 4.33745 1.78953 31
47.6449 4.38018 1.87215 20
47.5204 4.20352 1.95797 38
47.4567 4.40883 2.03828 33
47.3136 4.2146 2.12346 36
47.1274 4.38262 2.20308 37
47.2381 4.3142 2.37006 29
42.634 3.91307 2.48329 25
42.0105 3.90319 2.62285 10
41.7639 3.88441 2.76549 33
45.9832 4.08942 3.40885 29
41.2811 3.77749 3.98782 37
46.4393 4.26673 5.50156 28
41.6776 3.86223 6.24583 32
23.4949 2.23175 5.41164 9
nan nan nan nan
23.9409 2.29519 8.09334 3
nan nan nan nan
2.88563 0.243634 0.942046 39
2.8932 0.240895 1.13661 41
2.82537 0.246646 1.28732 54
2.92049 0.243993 1.36053 42
2.93046 0.24486 1.43241 33
2.99461 0.253215 1.47869 54
2.95305 0.251396 1.53277 32
3.86057 0.327132 1.43475 6
3.82501 0.333748 1.47365 9
3.84318 0.327203 1.49169 5
3.84118 0.326997 1.51568 8
3.83386 0.328527 1.53753 30
3.81997 0.334379 1.55251 13
3.81602 0.338382 1.56629 34
3.80406 0.32236 1.5814 36
3.77556 0.323587 1.59777 25
3.77631 0.330638 1.61078 8
3.74743 0.332438 1.62749 5
3.72525 0.315687 1.64247 5
3.72626 0.319415 1.65534 4
3.70662 0.328541 1.66993 5
3.71253 0.329425 1.68236 6
3.7295 0.320703 1.69414 5
3.75053 0.322217 1.7055 6
3.75558 0.332915 1.718 6
3.82585 0.340096 1.72595 5
3.77318 0.324548 1.74318 6
3.74938 0.321515 1.75792 5
nan nan nan nan
3.71934 0.330428 1.77264 3
nan nan nan nan
nan nan nan nan
nan nan nan nan
nan nan nan nan
nan nan nan nan
nan nan nan nan
nan nan nan nan
nan nan nan nan
19.6973 1.69276 1.0884 3
nan nan nan nan
19.8734 1.71986 1.14964 3
19.9094 1.72803 1.1829 3
20.0896 1.74878 1.21057 3
20.1975 1.73488 1.24208 3
20.4364 1.77135 1.2686 3
20.8046 1.81947 1.29152 3
nan nan nan nan
nan nan nan nan
54.9959 4.66051 0.41293 3
55.0182 4.89704 0.504933 8
55.137 4.71606 0.601352 8
nan nan nan nan
nan nan nan nan
nan nan nan nan
nan nan nan nan
nan nan nan nan
nan nan nan nan
nan nan nan nan
110.764 9.47748 0.739371 16
47.5846 4.24858 1.54073 10
47.5662 4.12368 1.62597 1
47.5523 4.17485 1.70859 8
47.5333 4.16704 1.79202 20
47.5154 4.20111 1.87481 32
47.5049 4.03511 1.96027 37
47.4618 4.24229 2.04054 33
47.153 4.04275 2.12516 30
47.0876 4.21322 2.20509 35
47.3674 4.15939 2.37321 31
47.3439 4.17839 2.53857 30
91.3565 8.16967 3.35626 14
47.4785 4.24895 2.87199 8
46.2447 3.96638 3.41846 25
41.2939 3.63348 3.98979 37
46.1955 4.08196 5.4843 34
nan nan nan nan
42.0211 3.84606 8.10413 12
23.1832 2.03022 6.4089 24
nan nan nan nan
nan nan nan nan
3.7978 0.306674 0.603302 38
nan nan nan nan
2.82625 0.236753 1.28745 67
2.94082 0.235354 1.35634 74
2.94604 0.235279 1.42967 42
3.00532 0.24354 1.4771 25
nan nan nan nan
3.86172 0.313632 1.43494 6
3.84099 0.321607 1.47177 6
3.8592 0.314291 1.4899 5
3.86704 0.31561 1.51271 6
3.86964 0.317975 1.53348 38
3.88051 0.325989 1.54564 11
3.89144 0.331292 1.55791 19
3.85978 0.312178 1.57552 20
3.8411 0.315693 1.59099 13
3.78241 0.317854 1.61044 20
3.75851 0.320176 1.62667 6
3.7463 0.302986 1.64073 8
3.74722 0.308027 1.65366 6
3.7425 0.31853 1.66696 4
3.75338 0.319796 1.67908 6
3.70589 0.304313 1.69641 5
3.76158 0.309933 1.70489 6
3.7766 0.321477 1.71666 4
3.82702 0.32673 1.72614 6
3.78435 0.310872 1.74269 5
nan nan nan nan
19.1437 1.56107 0.779957 3
nan nan nan nan
nan nan nan nan
nan nan nan nan
19.3734 1.60462 0.900752 4
nan nan nan nan
nan nan nan nan
nan nan nan nan
nan nan nan nan
nan nan nan nan
nan nan nan nan
19.8851 1.68245 1.11497 3
19.8644 1.64921 1.15124 3
19.9209 1.65196 1.18374 3
20.0906 1.67821 1.21173 3
20.2035 1.66435 1.24305 3
20.4275 1.69874 1.27011 3
20.8208 1.74765 1.29217 3
54.9798 4.60495 0.22161 5
55.0183 4.65893 0.31594 6
55.0269 4.4697 0.41514 4
55.0259 4.69448 0.507968 6
nan nan nan nan
72.3101 5.97233 0.307403 127
72.2994 6.0122 0.420991 40
72.2815 6.07705 0.54696 44
72.2349 6.06325 0.674563 45
72.2972 6.12213 0.799222 39
nan nan nan nan
nan nan nan nan
72.468 5.9454 1.17989 44
72.2973 6.20105 1.3045 35
nan nan nan nan
102.73 8.65611 1.37266 14
47.5283 3.99115 1.7945 8
47.5448 4.03652 1.87704 31
47.5436 3.87132 1.96253 6
47.5318 4.07303 2.04297 8
90.9936 7.48323 2.24375 29
90.8353 7.80867 2.39786 35
90.911 7.66193 2.7186 16
47.6222 4.03551 2.54384 8
91.311 7.82849 3.35973 18
nan nan nan nan
46.3435 3.8039 3.42339 29
41.5899 3.51338 4.00544 37
46.7608 3.96764 5.52812 31
22.3339 1.91447 4.27533 9
41.522 3.64725 8.03173 14
nan nan nan nan
nan nan nan nan
nan nan nan nan
3.77087 0.291206 0.613911 50
3.69208 0.279945 0.895633 5
2.83675 0.22762 1.28511 52
2.94166 0.225062 1.35648 74
2.95665 0.225727 1.42789 42
3.82115 0.295945 1.33318 5
3.78659 0.295824 1.39932 6
3.83323 0.297835 1.43951 6
3.84212 0.308178 1.47195 6
3.86524 0.301181 1.48943 6
3.88298 0.303264 1.511 6
3.90538 0.307176 1.52943 6
3.92619 0.315991 1.54054 5
3.96192 0.323279 1.55012 36
3.97476 0.308275 1.56298 5
18.467 1.45468 0.0113813 3
nan nan nan nan
3.76458 0.307441 1.62635 8
nan nan nan nan
3.72844 0.293368 1.6557 8
3.70886 0.302633 1.67028 5
3.75946 0.307082 1.67883 5
3.7367 0.294381 1.69409 5
3.76266 0.296791 1.70507 4
3.77275 0.307879 1.71722 5
3.84307 0.314566 1.72524 6
18.9066 1.50059 0.69633 3
18.9368 1.49274 0.760928 3
19.1441 1.49381 0.781196 3
nan nan nan nan
nan nan nan nan
nan nan nan nan
19.369 1.53616 0.90225 4
nan nan nan nan
nan nan nan nan
nan nan nan nan
nan nan nan nan
nan nan nan nan
nan nan nan nan
19.8959 1.61341 1.1157 3
19.8701 1.57984 1.15219 3
19.9263 1.58587 1.18465 3
20.0967 1.60454 1.21274 3
20.1843 1.59183 1.24496 3
20.4135 1.62582 1.27181 3
28.5375 2.29446 1.03019 3
28.6041 2.29655 1.07805 5
41.8438 3.39712 0.722383 3
nan nan nan nan
nan nan nan nan
55.1653 4.31132 0.607045 11
nan nan nan nan
nan nan nan nan
nan nan nan nan
nan nan nan nan
nan nan nan nan
nan nan nan nan
nan nan nan nan
nan nan nan nan
108.689 8.94064 0.958599 13
nan nan nan nan
94.7061 7.64732 1.42657 30
94.5548 7.60525 1.59344 8
nan nan nan nan
90.0328 7.01823 1.93127 37
89.9277 7.39231 2.08353 31
90.4434 7.08853 2.247 29
90.7822 7.48505 2.40186 15
91.0019 7.34986 2.72348 36
91.0006 7.38826 3.0416 13
nan nan nan nan
nan nan nan nan
46.0831 3.61262 3.41731 13
41.8109 3.38522 4.01753 36
46.7145 3.79972 5.52586 5
22.3403 1.83661 4.2764 14
nan nan nan nan
nan nan nan nan
28.2217 2.4088 9.18159 4
nan nan nan nan
3.78596 0.279012 0.608881 45
3.72174 0.26906 0.887145 6
2.8424 0.218052 1.28402 64
2.93759 0.214405 1.35771 71
2.96235 0.215743 1.42707 28
3.83207 0.282639 1.33164 6
3.79255 0.282949 1.39872 6
3.83921 0.284796 1.43896 6
3.84319 0.294744 1.47213 6
3.87618 0.288396 1.48829 6
3.89393 0.290437 1.50992 6
3.91635 0.29427 1.52841 6
3.94215 0.303404 1.53897 5
3.99771 0.312104 1.54632 14
3.97088 0.294012 1.56373 5
18.6654 1.40469 -0.00859618 3
18.6455 1.42919 0.0588667 5
nan nan nan nan
18.7161 1.39594 0.184443 6
3.76421 0.282956 1.65262 12
3.75459 0.293142 1.66642 6
3.76549 0.294329 1.67858 5
nan nan nan nan
nan nan nan nan
3.78375 0.29547 1.71664 4
3.88393 0.304217 1.72253 3
18.9814 1.43983 0.692428 3
19.0216 1.43259 0.756619 3
19.1789 1.43251 0.780169 3
nan nan nan nan
19.267 1.44556 0.841997 3
nan nan nan nan
19.3643 1.46774 0.90375 4
nan nan nan nan
nan nan nan nan
nan nan nan nan
nan nan nan nan
nan nan nan nan
nan nan nan nan
19.8915 1.54315 1.1171 3
19.8755 1.51044 1.15315 3
19.9367 1.51666 1.18541 3
20.1025 1.53085 1.21376 3
20.1898 1.52134 1.24593 3
20.424 1.55492 1.27261 3
nan nan nan nan
28.6269 2.19781 1.07894 5
41.7607 3.24367 0.727291 11
41.7291 3.0955 0.803639 11
nan nan nan nan
55.1708 4.10833 0.610094 24
nan nan nan nan
nan nan nan nan
nan nan nan nan
nan nan nan nan
nan nan nan nan
92.7356 6.88551 0.635766 17
92.6831 7.27541 0.792926 15
108.409 8.07629 0.783756 17
108.605 8.55218 0.964925 13
102.277 7.78805 1.20823 4
102.29 7.9003 1.38556 13
94.4761 7.26714 1.59844 7
90.806 7.06791 1.77189 18
90.2213 6.71622 1.9355 25
89.9131 7.07528 2.08782 25
89.6062 6.69262 2.24921 35
89.5268 7.06706 2.40053 25
nan nan nan nan
90.7965 7.05286 3.04335 14
91.448 7.19773 3.36978 37
92.4128 7.29654 3.7075 25
46.1607 3.44863 3.42164 11
42.0663 3.25826 4.03132 34
45.3106 3.52657 5.42113 4
22.3515 1.75911 4.27798 30
nan nan nan nan
21.5531 1.64562 6.09826 36
nan nan nan nan
nan nan nan nan
3.79161 0.266729 0.607318 42
3.73226 0.256672 0.884437 6
2.83352 0.207406 1.28662 96
2.94809 0.204813 1.35569 55
3.65814 0.254161 1.29065 8
3.83307 0.269235 1.33183 6
3.8034 0.270387 1.39732 6
3.84509 0.272392 1.43841 6
3.84912 0.28234 1.47162 6
3.87719 0.274844 1.48848 6
3.89 0.276468 1.51074 6
3.92233 0.280935 1.528 5
3.9382 0.289951 1.53973 5
3.99385 0.297767 1.54708 5
3.95703 0.279075 1.56558 5
18.7844 1.34764 -0.0199943 3
18.8142 1.37598 0.0426877 4
18.8846 1.39419 0.105047 4
nan nan nan nan
nan nan nan nan
nan nan nan nan
18.9784 1.40143 0.359805 4
18.8769 1.36522 0.435612 4
19.1165 1.37559 0.483055 3
18.9093 1.40692 0.565104 4
18.9842 1.40555 0.626222 4
19.056 1.37857 0.688535 3
19.0962 1.37115 0.752973 3
19.2781 1.37561 0.775019 3
19.2458 1.43567 0.809686 3
19.3268 1.38217 0.83963 3
19.3549 1.43329 0.870965 2
nan nan nan nan
19.4061 1.40431 0.936584 2
19.5324 1.41502 0.96383 3
nan nan nan nan
19.5672 1.40008 1.03425 2
nan nan nan nan
nan nan nan nan
19.9018 1.47405 1.11784 3
19.8807 1.44103 1.15411 4
19.9419 1.44704 1.18637 3
20.1077 1.46065 1.21474 3
20.2049 1.45156 1.24654 3
20.459 1.48934 1.27248 3
20.8029 1.53055 1.29632 3
28.6145 2.09639 1.08097 78
nan nan nan nan
41.5702 2.9378 0.810526 25
nan nan nan nan
55.1842 3.92533 0.612633 18
107.389 7.73839 -0.497643 9
107.422 7.81958 -0.330404 12
93.0601 6.85922 0.143143 45
93.0254 6.82734 0.307092 22
92.7788 6.8777 0.472927 5
73.2601 5.18161 0.926702 33
73.2393 5.4914 1.05054 10
92.7208 6.59823 0.964675 14
92.715 6.97529 1.12147 18
73.1304 5.32495 1.4381 5
73.0506 5.39889 1.56537 11
nan nan nan nan
90.895 6.75576 1.77611 14
nan nan nan nan
89.8973 6.75844 2.09212 37
89.972 6.42006 2.25429 25
90.0096 6.78919 2.40691 29
90.7318 6.69102 2.7297 31
90.9053 6.74226 3.04872 29
nan nan nan nan
92.5174 6.98007 3.71344 42
74.1433 5.28014 4.28571 15
42.2063 3.12845 4.03951 28
74.4335 5.54494 7.62232 11
22.3524 1.68082 4.27855 14
23.14 1.7879 5.36067 23
nan nan nan nan
nan nan nan nan
nan nan nan nan
3.79731 0.253081 0.605775 46
3.73319 0.243598 0.884619 5
2.83909 0.197816 1.28553 58
2.94886 0.19398 1.35584 36
3.67863 0.242668 1.28698 6
3.83888 0.256829 1.33114 6
3.8142 0.257753 1.39592 6
3.85592 0.25961 1.43714 6
3.85509 0.268551 1.47113 5
3.8831 0.261619 1.488 6
3.88606 0.261851 1.51157 6
3.91341 0.266548 1.5294 6
3.89468 0.272398 1.54522 6
3.98993 0.28346 1.54784 5
nan nan nan nan
3.96921 0.270435 1.57836 4
18.9134 1.31348 0.0338167 4
18.939 1.33168 0.100971 3
18.9589 1.28091 0.163583 5
18.9694 1.29469 0.229157 6
18.9572 1.3402 0.29612 3
18.9733 1.33442 0.361586 4
18.9015 1.30064 0.434876 3
19.1163 1.30846 0.484379 3
19.1134 1.35161 0.550932 3
19.1532 1.35078 0.615232 3
19.1554 1.31852 0.682935 3
19.2005 1.31124 0.747381 3
19.2532 1.30288 0.777906 5
19.3107 1.36931 0.806961 3
19.3116 1.31331 0.841768 3
19.4147 1.36954 0.8687 3
19.5189 1.33901 0.897484 0
19.5006 1.34272 0.932598 3
19.6466 1.35779 0.9589 3
19.5997 1.3389 0.995993 2
19.6819 1.33576 1.02982 2
19.719 1.3986 1.05801 5
19.7442 1.34652 1.09228 3
19.9119 1.4049 1.11859 4
19.9258 1.37088 1.15343 3
19.9419 1.37705 1.18754 3
20.1225 1.39464 1.21527 3
20.2149 1.38134 1.24733 3
20.4791 1.41893 1.27294 3
20.8782 1.45915 1.29501 3
28.6417 1.99787 1.08172 99
nan nan nan nan
34.9035 2.3375 1.00387 36
nan nan nan nan
55.192 3.74195 0.615306 18
107.879 7.39524 -0.503205 9
73.1436 5.06791 0.41815 28
73.1674 5.12375 0.544821 34
73.2353 5.11851 0.671747 23
73.2685 5.17509 0.798507 26
73.2337 4.91005 0.931099 18
73.1783 5.23002 1.05512 14
73.2233 4.96642 1.18653 15
73.1699 5.24796 1.31095 17
73.1735 5.07139 1.44146 12
73.1297 5.13534 1.56873 15
73.1618 5.11479 1.69683 9
89.9454 6.36965 1.78289 10
89.2294 6.00073 1.94514 36
89.8505 6.43965 2.0964 16
89.9928 6.12173 2.25845 35
73.2312 5.26659 2.33492 10
90.0524 6.30926 2.72865 21
73.3531 5.18387 2.84993 11
92.0644 6.60014 3.38717 35
92.1123 6.62636 3.70996 25
72.155 4.91085 4.22712 12
73.5075 5.19049 5.55431 10
52.276 3.71123 5.95007 5
nan nan nan nan
23.1657 1.70873 5.36466 10
23.6455 1.65244 6.49663 12
28.6841 2.14703 9.29766 5
nan nan nan nan
3.8076 0.240354 0.602486 39
3.75319 0.231686 0.879026 6
2.84464 0.188189 1.28443 57
nan nan nan nan
3.67949 0.229798 1.28716 6
3.84466 0.244387 1.33045 8
3.81511 0.244414 1.39611 6
3.85683 0.246127 1.43732 6
3.85604 0.255073 1.47132 6
3.88401 0.248044 1.48819 6
3.88698 0.248267 1.51176 6
3.90939 0.252548 1.53019 6
3.89068 0.258457 1.54599 5
3.99092 0.269514 1.54804 5
21.5247 1.37861 -0.388126 5
19.1954 1.24234 -0.0614514 4
19.1858 1.26838 0.00676703 4
19.1273 1.27772 0.0834321 3
19.1074 1.22391 0.150522 1
19.0335 1.23226 0.224502 4
18.9221 1.27129 0.300623 3
19.0376 1.2721 0.357345 4
19.0751 1.24566 0.421761 3
19.1158 1.24135 0.485705 3
19.0434 1.27982 0.557533 3
19.2027 1.28686 0.612917 3
19.2744 1.2591 0.675975 3
19.2598 1.24772 0.744734 4
19.2727 1.23658 0.777894 4
19.3154 1.30185 0.807899 3
19.2863 1.24393 0.844506 3
19.4244 1.30206 0.869352 3
nan nan nan nan
nan nan nan nan
20.1492 1.32541 0.933328 3
nan nan nan nan
19.7612 1.27183 1.02708 3
19.7039 1.32839 1.05992 4
19.7987 1.28078 1.09094 3
19.9267 1.33603 1.11911 3
20.0302 1.30783 1.15015 3
19.9865 1.31003 1.18688 5
20.1719 1.33084 1.21445 5
20.2795 1.31463 1.24608 3
20.5089 1.34906 1.27305 3
20.968 1.39186 1.29315 4
28.6485 1.89786 1.08311 97
nan nan nan nan
34.8916 2.21436 1.00614 41
55.1198 3.73464 0.520724 5
55.1992 3.55857 0.617986 37
73.0223 4.74954 0.310576 15
72.9066 4.79581 0.427208 16
72.9106 4.85006 0.553832 23
72.9835 4.84496 0.680191 23
73.0767 4.90525 0.805501 9
73.0559 4.64201 0.937507 14
72.9966 4.96098 1.06125 36
73.1147 4.71554 1.1913 9
nan nan nan nan
73.061 4.80743 1.44601 3
nan nan nan nan
89.7527 5.95934 1.63198 15
89.2986 6.01072 1.78886 25
73.0377 4.65515 1.9591 16
89.3786 6.09236 2.10022 36
90.267 5.8398 2.26335 41
90.0996 6.16386 2.41585 38
90.0379 6.00836 2.73253 21
90.5908 6.08356 3.05337 21
73.3125 4.9982 3.10829 26
73.9455 5.06008 3.37629 14
72.5547 4.69655 4.24232 12
91.3342 6.12906 6.41954 11
43.6129 2.9435 5.29674 9
41.4057 2.82029 6.22392 30
23.191 1.62941 5.36865 10
21.5185 1.43215 6.09185 12
nan nan nan nan
nan nan nan nan
3.79445 0.226174 0.607882 30
3.76359 0.219087 0.876323 5
2.85015 0.178526 1.28333 56
3.87609 0.228882 1.1508 5
3.6852 0.217217 1.28638 8
3.84548 0.231611 1.33063 5
3.8209 0.231371 1.3955 6
3.86268 0.232263 1.43679 6
3.86682 0.242206 1.47014 5
3.88983 0.23476 1.48772 6
3.9027 0.235589 1.51006 5
3.92018 0.239489 1.52918 5
3.89654 0.245168 1.5456 5
4.01169 0.256815 1.54596 5
21.5146 1.30248 -0.385419 9
22.2117 1.3597 -0.384734 4
19.3292 1.21002 -0.00676894 4
19.2956 1.22122 0.0679085 3
19.355 1.17191 0.127838 1
19.2713 1.18006 0.203593 4
19.1452 1.21908 0.281858 3
19.2657 1.2197 0.338922 1
19.2485 1.18949 0.408666 1
19.2644 1.18343 0.475181 2
19.217 1.22405 0.545614 1
19.3216 1.22702 0.605563 1
19.2987 1.193 0.675544 3
19.3437 1.18533 0.740467 3
19.3518 1.17041 0.774132 1
19.3548 1.23661 0.806683 3
19.3503 1.1802 0.841857 3
19.4189 1.23358 0.870881 1
20.7236 1.27651 0.831721 3
20.1225 1.24446 0.900891 1
21.1004 1.31776 0.883994 3
nan nan nan nan
nan nan nan nan
nan nan nan nan
19.9427 1.22016 1.08548 3
19.9412 1.26707 1.11964 3
20.1693 1.24622 1.14539 1
19.9212 1.23589 1.19071 1
20.2111 1.26611 1.21402 3
20.264 1.24259 1.24782 3
20.5736 1.27758 1.27198 3
21.0027 1.32053 1.29316 3
28.645 1.7972 1.08483 54
34.1013 2.1708 0.968986 40
34.9291 2.09433 1.00699 54
41.6602 2.67595 0.885045 4
55.2207 3.37609 0.620298 35
73.0136 4.49305 0.314719 16
72.809 4.52141 0.433419 15
72.8673 4.59173 0.558576 15
73.005 4.59047 0.683662 23
72.9737 4.64252 0.81102 32
73.0068 4.38308 0.942023 23
72.9936 4.70487 1.06506 24
73.0052 4.46544 1.19607 26
73.0202 4.7251 1.3198 37
73.0233 4.53623 1.45017 5
73.0141 4.61527 1.57673 36
73.0111 4.59236 1.70471 36
73.0122 4.65925 1.8314 33
73.0136 4.39781 1.96269 34
72.9736 4.71785 2.08578 36
72.9686 4.47749 2.21665 41
72.9319 4.73364 2.3405 35
72.8931 4.60912 2.59684 41
73.8165 4.69911 2.86207 13
72.8406 4.71071 3.10446 42
72.8252 4.72819 3.3587 23
72.8641 4.47413 4.25479 12
91.276 5.78946 6.42035 13
43.5336 2.77809 5.2922 35
41.3455 2.67147 6.21885 25
nan nan nan nan
23.7829 1.50404 6.52309 12
nan nan nan nan
nan nan nan nan
5.53217 0.30947 -0.0360875 18
3.77873 0.206677 0.872178 5
2.86044 0.169607 1.281 55
9.74533 0.54676 -0.149854 4
3.73007 0.206799 1.27791 5
3.85122 0.218442 1.32995 6
3.8365 0.218855 1.39332 6
3.86843 0.219036 1.43625 5
3.87755 0.229267 1.46895 6
3.8956 0.221439 1.48725 5
3.88867 0.221088 1.51214 5
3.91606 0.225501 1.52997 5
20.0718 1.18558 -0.366383 5
20.9763 1.25683 -0.39948 5
21.534 1.22813 -0.386018 12
22.2015 1.28121 -0.382044 4
19.5022 1.15242 -0.0233879 3
19.4536 1.16636 0.0533538 3
19.5479 1.11507 0.11048 3
19.3996 1.1199 0.192927 1
19.2836 1.16025 0.27072 3
19.3493 1.1605 0.332941 1
19.3571 1.12834 0.40095 3
19.3829 1.12276 0.467043 1
19.4004 1.16769 0.532959 3
19.4252 1.16887 0.599257 3
19.4771 1.13577 0.664495 3
19.4375 1.12294 0.735561 1
19.6249 1.11814 0.757993 3
19.2395 1.16179 0.815021 3
nan nan nan nan
19.4578 1.17124 0.86975 1
20.1499 1.17044 0.865414 3
nan nan nan nan
20.2327 1.19258 0.931284 3
nan nan nan nan
20.1787 1.1537 1.0089 1
nan nan nan nan
20.1613 1.16285 1.0766 1
20.0002 1.2042 1.11814 1
20.2883 1.18249 1.14151 1
20.105 1.17686 1.18437 3
20.3501 1.20351 1.20975 1
20.3281 1.17529 1.24658 5
20.6178 1.20807 1.27157 3
28.6145 1.69824 1.03733 3
28.6562 1.69747 1.08607 97
34.0834 2.05618 0.971326 33
34.9212 1.97153 1.00913 73
41.6644 2.53019 0.887215 4
55.2572 3.18473 0.622381 11
73.0089 4.23698 0.318757 12
73.0789 4.28213 0.431512 9
73.0327 4.34624 0.559181 11
73.0406 4.33679 0.686875 14
73.0137 4.402 0.814003 14
90.5269 5.11875 0.692145 21
91.0147 5.54815 0.838243 21
90.8048 5.23648 1.00406 35
90.7175 5.55251 1.15891 29
90.0241 5.27684 1.32611 4
89.9594 5.37085 1.48243 14
nan nan nan nan
73.182 4.42649 1.83443 14
90.73 5.14809 1.95752 36
90.1625 5.51385 2.10983 16
73.6227 4.25979 2.22213 15
73.457 4.51035 2.34644 10
90.3321 5.39501 2.74341 18
72.9476 4.41385 2.85499 38
90.6561 5.54595 3.37828 31
91.5826 5.62533 3.71233 14
91.1507 5.26234 4.82444 11
91.6544 5.49257 6.44221 15
43.7818 2.64069 5.3124 35
23.0629 1.41917 4.35325 8
nan nan nan nan
22.4004 1.33432 6.26012 12
26.0634 1.6775 8.62952 3
nan nan nan nan
5.538 0.290319 -0.0375512 16
nan nan nan nan
2.87072 0.160119 1.27867 55
9.75216 0.512913 -0.150454 4
3.7455 0.194523 1.27521 6
3.85695 0.20456 1.32928 6
3.83723 0.206109 1.3935 6
3.87414 0.205771 1.43571 6
3.85858 0.214619 1.47189 6
3.91617 0.208863 1.48481 6
18.4608 0.99869 -0.340746 5
19.4296 1.05602 -0.357319 4
20.0958 1.11652 -0.36774 5
20.9261 1.18044 -0.392197 5
21.5532 1.15367 -0.386611 14
22.1909 1.20669 -0.379406 6
19.7098 1.09557 -0.043602 3
19.6017 1.10648 0.0398602 3
19.681 1.05369 0.0989219 4
19.6022 1.06632 0.175265 3
19.4965 1.10468 0.252893 3
19.5572 1.10437 0.316278 1
19.5799 1.07273 0.38377 3
19.5409 1.06686 0.455714 1
19.4592 1.10301 0.529759 3
19.5537 1.10804 0.59121 3
19.5656 1.07239 0.659631 3
19.6303 1.07218 0.724071 1
19.4793 1.0416 0.768444 11
nan nan nan nan
nan nan nan nan
20.0748 1.1379 0.834998 3
nan nan nan nan
20.1757 1.10635 0.90041 3
20.217 1.11728 0.933384 3
20.1897 1.10319 0.970373 4
20.2126 1.08483 1.00842 3
20.2354 1.15137 1.03806 3
20.2551 1.09729 1.07346 3
20.2938 1.14716 1.10638 1
20.4719 1.12151 1.13488 1
20.2886 1.11656 1.17805 3
20.4991 1.13693 1.20517 1
20.4116 1.11577 1.24451 4
20.6319 1.13663 1.27223 4
28.5754 1.59582 1.04025 4
28.662 1.59741 1.08748 97
34.1007 1.93179 0.972779 29
34.9276 1.85569 1.01076 101
41.7129 2.38701 0.888191 4
55.2741 2.97277 0.625245 11
94.6287 5.19354 -0.175463 10
99.8418 5.50045 -0.138696 12
91.495 5.12408 0.199046 22
90.3556 5.04777 0.379654 31
90.3594 5.11456 0.536542 35
90.2838 4.8047 0.700122 37
90.3298 5.18997 0.851673 35
90.8342 4.88833 1.00886 36
90.9351 5.26323 1.16129 37
91.0504 5.01816 1.323 4
91.001 5.11434 1.48098 37
91.0183 5.08675 1.64035 18
90.8243 5.15872 1.79867 31
90.5369 4.83603 1.96186 37
90.5756 5.2219 2.11474 40
91.033 4.91698 2.279 36
91.1964 5.29628 2.43375 36
91.4136 5.13951 2.75662 29
90.4488 5.13937 3.0641 29
91.8528 5.29756 3.40066 40
91.5907 5.32115 3.71641 35
91.6683 4.95539 4.84462 46
nan nan nan nan
44.0344 2.50186 5.33301 5
41.8693 2.4123 6.27462 29
nan nan nan nan
21.5714 1.20198 6.10259 13
25.9718 1.58544 8.6061 5
nan nan nan nan
5.53441 0.270676 -0.035542 15
6.95069 0.328965 -0.0840421 5
2.87133 0.149566 1.27881 58
9.73928 0.479764 -0.146757 4
3.7609 0.182142 1.27252 6
3.85767 0.19107 1.32947 6
3.84289 0.192938 1.3929 6
3.87981 0.19247 1.43518 6
3.86922 0.20164 1.47071 5
3.90205 0.194442 1.48698 5
18.4592 0.937131 -0.339251 5
19.4135 0.987091 -0.353951 4
20.06 1.04422 -0.362066 5
20.9205 1.10312 -0.38998 8
21.587 1.07983 -0.388852 17
22.1405 1.12635 -0.372445 12
19.9669 1.03986 -0.0689542 4
19.8244 1.04605 0.0189637 4
19.8139 0.991403 0.0873797 3
19.76 1.00567 0.161849 4
19.744 1.04949 0.231964 3
19.7105 1.04047 0.30441 3
19.7677 1.01379 0.369498 3
19.7039 1.00673 0.444056 1
19.6323 1.04401 0.517894 3
19.7669 1.04735 0.577113 3
19.3501 0.992765 0.675652 10
19.5943 0.998147 0.727684 12
nan nan nan nan
nan nan nan nan
nan nan nan nan
20.1686 1.06902 0.830814 3
nan nan nan nan
20.1894 1.0364 0.900859 1
nan nan nan nan
20.1438 1.02661 0.973969 4
nan nan nan nan
20.1795 1.07751 1.04191 3
nan nan nan nan
20.3079 1.07327 1.10698 3
20.6252 1.06132 1.12949 1
20.4521 1.05396 1.17256 3
20.6726 1.07417 1.19958 3
20.5902 1.04984 1.23908 4
20.7306 1.06947 1.26989 5
28.5858 1.4963 1.04149 5
28.6674 1.49733 1.08889 96
34.1126 1.80703 0.974391 28
34.9386 1.74009 1.01226 98
55.1768 2.96511 0.531255 9
55.2887 2.78969 0.62771 9
99.844 5.11279 -0.28992 15
99.8505 5.15136 -0.133564 14
91.6222 4.81042 0.20139 15
91.0567 4.76812 0.371851 35
90.3128 4.7799 0.54226 29
nan nan nan nan
90.5421 4.88515 0.853643 29
90.8949 4.58937 1.01263 25
91.1376 4.95584 1.16406 39
91.2272 4.70858 1.32631 5
91.3029 4.81168 1.48384 36
90.5112 4.7416 1.64689 10
90.4881 4.80703 1.80414 38
90.3227 4.52431 1.96619 35
90.4485 4.89792 2.119 38
91.2535 4.62552 2.28389 37
91.2992 4.98262 2.43863 29
91.8504 4.84258 2.7646 42
91.6702 4.87183 3.08296 14
91.8257 4.97458 3.40449 39
92.1527 5.03124 3.73112 40
91.6549 4.63404 4.84821 37
91.7549 4.8565 6.45436 22
45.8151 2.44279 5.46941 10
42.2799 2.28071 6.31789 30
nan nan nan nan
21.7026 1.13731 6.12788 23
25.9284 1.49228 8.59505 5
nan nan nan nan
5.5401 0.251484 -0.0370035 16
6.94712 0.304409 -0.0822549 10
2.88639 0.140199 1.27525 68
9.75076 0.44613 -0.148434 4
3.77136 0.169431 1.27078 6
3.86327 0.177805 1.3288 6
3.8535 0.178614 1.39153 5
3.88543 0.179131 1.43464 6
3.87488 0.188351 1.47021 6
3.92254 0.181705 1.48453 5
18.4624 0.872604 -0.338338 6
19.3429 0.908949 -0.343857 4
20.0736 0.974584 -0.362246 14
20.9492 1.03122 -0.391787 13
21.5907 1.00439 -0.387784 14
22.11 1.0396 -0.367509 14
20.1493 0.978752 -0.08654 3
20.0019 0.985304 0.00252295 4
19.9864 0.930053 0.0720053 3
19.9329 0.937678 0.147159 3
19.8521 0.985679 0.223562 3
19.8932 0.980397 0.289937 3
19.9454 0.953072 0.35607 3
19.2646 0.91006 0.480205 6
19.0533 0.946534 0.562959 11
19.0881 0.944664 0.627334 58
19.2639 0.920871 0.682763 46
19.2739 0.91096 0.749794 43
nan nan nan nan
nan nan nan nan
nan nan nan nan
nan nan nan nan
18.1316 0.865495 0.982702 208
nan nan nan nan
nan nan nan nan
nan nan nan nan
nan nan nan nan
nan nan nan nan
nan nan nan nan
nan nan nan nan
20.8234 0.998665 1.12227 1
20.5754 0.988307 1.16871 3
20.826 1.00925 1.19478 3
20.7689 0.978991 1.23372 3
20.909 1.00548 1.26474 5
28.5909 1.39649 1.0429 31
28.6725 1.39723 1.0903 97
34.1235 1.69412 0.975839 14
34.9548 1.61246 1.01379 98
55.2119 2.77372 0.533312 11
55.3181 2.5976 0.629949 9
92.1088 4.36207 -0.106857 8
92.0938 4.42893 0.0373135 29
92.073 4.51183 0.197395 42
91.8918 4.49022 0.361722 12
91.7363 4.55017 0.523791 0
91.7136 4.23898 0.689014 45
91.2527 4.60411 0.849335 40
91.2201 4.28663 1.01377 36
91.36 4.63217 1.1669 41
91.2931 4.39254 1.33045 4
91.494 4.50158 1.48737 41
90.2875 4.41396 1.65229 8
90.3688 4.50027 1.80867 37
90.3187 4.19236 1.97089 36
90.3052 4.57413 2.12325 36
91.374 4.31198 2.28874 31
91.4367 4.65414 2.44394 31
91.7418 4.51588 2.7681 39
91.9363 4.5643 3.09044 38
92.122 4.66831 3.4133 36
91.9358 4.68164 3.73147 27
93.5274 4.40168 4.91051 13
91.7661 4.53618 6.45865 22
45.9328 2.28849 5.47997 8
23.1411 1.17314 4.36337 9
nan nan nan nan
nan nan nan nan
24.4382 1.31693 8.21568 6
nan nan nan nan
5.54105 0.232061 -0.0367281 16
6.9482 0.28129 -0.0819266 15
8.34719 0.368828 -0.116649 10
9.75237 0.412007 -0.14795 5
3.78177 0.15665 1.26905 8
3.8639 0.164293 1.32899 6
3.86896 0.165098 1.38937 6
3.891 0.165755 1.4341 6
3.87059 0.174583 1.47109 5
nan nan nan nan
18.4457 0.807194 -0.334906 30
nan nan nan nan
20.0522 0.903306 -0.358326 14
20.9627 0.958451 -0.391885 13
nan nan nan nan
22.0741 0.956746 -0.362094 11
22.15 0.998195 -0.292831 3
20.1793 0.923333 -0.0138974 3
nan nan nan nan
nan nan nan nan
nan nan nan nan
nan nan nan nan
18.2163 0.806442 0.5002 43
nan nan nan nan
nan nan nan nan
nan nan nan nan
nan nan nan nan
nan nan nan nan
18.1033 0.777924 0.859038 49
nan nan nan nan
18.1066 0.790612 0.921999 32
18.1014 0.833083 0.953258 36
18.1047 0.800837 0.985286 49
nan nan nan nan
18.1926 0.814158 1.04382 41
18.1206 0.787087 1.0797 80
nan nan nan nan
nan nan nan nan
nan nan nan nan
nan nan nan nan
nan nan nan nan
20.7535 0.924259 1.16264 3
19.3171 0.868415 1.25447 9
20.9121 0.908921 1.22963 3
21.0522 0.938702 1.26084 4
28.6004 1.30188 1.04408 31
28.677 1.30213 1.09165 97
34.1093 1.57406 0.978129 30
34.9653 1.49063 1.01538 103
55.2413 2.58188 0.535512 9
55.3369 2.4049 0.632446 8
92.1143 4.02398 -0.101832 8
nan nan nan nan
92.0825 4.20623 0.201824 31
92.0511 4.19205 0.363466 45
91.8915 4.23636 0.526085 47
91.5631 3.91177 0.695919 40
91.3632 4.29002 0.852654 40
91.4693 3.97842 1.01576 37
91.4563 4.30108 1.17092 40
91.5027 4.08256 1.33354 4
91.5234 4.19887 1.49159 36
91.5354 4.17075 1.65181 11
90.3939 4.18531 1.81312 18
91.7215 3.93679 1.97496 41
91.749 4.32634 2.1297 36
91.5683 4.00093 2.29384 37
91.4631 4.31953 2.44873 39
91.8162 4.21446 2.77291 36
91.8767 4.24 3.0941 29
92.0378 4.34212 3.41632 38
91.9722 4.34573 3.73662 36
93.9315 4.09234 4.92728 8
91.7013 4.21241 6.45931 31
nan nan nan nan
23.1101 1.09083 4.36096 9
25.0772 1.23612 5.64584 6
22.8578 1.0384 6.3487 7
24.4715 1.22911 8.22434 9
nan nan nan nan
5.54658 0.213786 -0.0382009 13
6.95408 0.255908 -0.0830047 19
8.35338 0.3398 -0.117468 10
9.7393 0.375601 -0.144202 10
3.79214 0.143798 1.26732 6
3.86941 0.150972 1.32831 6
3.86458 0.15205 1.39034 6
3.89652 0.152343 1.43357 5
3.87117 0.161728 1.47127 5
17.3257 0.671857 -0.298503 5
18.4288 0.738692 -0.331427 31
18.4662 0.738391 -0.234775 38
nan nan nan nan
18.4099 0.777729 -0.0985856 10
nan nan nan nan
nan nan nan nan
18.2426 0.761724 0.113842 41
18.3632 0.776282 0.169081 31
18.2172 0.719944 0.245542 40
18.1981 0.728611 0.311253 35
nan nan nan nan
nan nan nan nan
18.1345 0.739335 0.508094 40
18.1052 0.728516 0.574229 60
18.1528 0.777956 0.633307 40
18.1477 0.771254 0.697431 51
18.1386 0.739955 0.762187 49
18.1185 0.726333 0.827245 56
18.0861 0.713903 0.8612 46
18.1152 0.779956 0.889971 4
18.1094 0.724207 0.922945 32
18.2938 0.777879 0.943163 111
18.1425 0.735865 0.984267 49
18.1042 0.738993 1.01801 63
18.1555 0.74897 1.04683 24
18.163 0.728569 1.07852 39
18.1302 0.719307 1.11519 23
19.4262 0.836756 1.08112 6
nan nan nan nan
19.3298 0.822188 1.15342 3
nan nan nan nan
19.2791 0.790964 1.22348 10
19.2202 0.796814 1.2593 10
19.2176 0.77137 1.29336 4
21.2451 0.872984 1.25521 4
28.6046 1.20701 1.04543 30
28.6767 1.19678 1.09331 97
34.1296 1.4556 0.979373 32
34.9705 1.36245 1.01721 107
nan nan nan nan
55.355 2.2121 0.634952 5
103.535 4.17897 -0.357593 13
103.326 4.24617 -0.191489 17
92.091 3.90063 0.206265 25
92.1508 3.85818 0.366759 14
92.3503 3.93449 0.523525 25
92.3163 3.60505 0.690192 41
92.2917 4.01084 0.845726 38
91.6226 3.66472 1.01881 25
91.6056 3.9877 1.17424 35
91.7312 3.772 1.33653 4
91.8266 3.9077 1.4943 37
92.2245 3.8635 1.65404 22
91.8267 3.93047 1.81471 37
91.3906 3.5871 1.97984 36
91.4988 3.99455 2.13387 40
91.7215 3.68697 2.29885 39
91.4926 4.00097 2.45335 37
91.5948 3.90006 2.77526 31
92.2905 3.9364 3.10343 14
92.5818 4.04408 3.42905 40
92.9256 4.06588 3.75894 40
nan nan nan nan
48.4403 2.05612 4.3579 4
nan nan nan nan
23.2031 1.01417 4.37125 6
22.936 1.05026 5.3349 6
21.9875 0.922101 6.18345 11
nan nan nan nan
nan nan nan nan
5.53802 0.194015 -0.0344543 16
6.9359 0.230919 -0.0768893 16
8.35463 0.310555 -0.117051 10
9.74554 0.34169 -0.144795 30
3.8172 0.130725 1.26272 6
3.86995 0.137438 1.32851 6
3.8799 0.139746 1.38815 8
nan nan nan nan
16.4826 0.625431 -0.273799 5
17.3281 0.611288 -0.297638 8
18.1786 0.664973 -0.298447 45
18.434 0.675799 -0.229688 39
18.1725 0.694714 -0.134249 47
18.4077 0.713194 -0.0971012 50
18.1936 0.651675 -0.00740004 49
18.2795 0.670623 0.0472956 85
18.2403 0.697783 0.115266 42
18.2515 0.707702 0.181426 41
18.2546 0.654357 0.243134 81
18.2154 0.668752 0.310727 43
18.1944 0.715604 0.375793 41
18.1853 0.705571 0.440667 50
18.162 0.673737 0.50699 57
18.1424 0.669715 0.572333 52
18.1406 0.713953 0.635339 58
18.1403 0.707472 0.699052 58
18.1263 0.672868 0.76416 54
18.1207 0.669375 0.828058 62
18.1234 0.651985 0.859898 51
18.1129 0.716486 0.891178 20
18.1218 0.661318 0.923253 34
18.1268 0.707401 0.953902 81
18.125 0.671757 0.986293 79
18.0969 0.672229 1.0195 51
18.1381 0.684807 1.04878 40
18.1353 0.670372 1.08086 95
18.1376 0.656172 1.11585 23
nan nan nan nan
18.1899 0.667431 1.17351 27
19.0232 0.742665 1.16798 21
18.1872 0.67771 1.237 11
19.0972 0.71335 1.23196 34
18.2044 0.690952 1.29965 5
19.0602 0.705061 1.30012 3
28.5733 1.074 0.998623 4
28.5989 1.10175 1.04726 30
28.6857 1.09684 1.09458 97
nan nan nan nan
34.9851 1.24071 1.01868 99
nan nan nan nan
93.8452 3.42325 -0.311469 13
103.887 3.8663 -0.360674 12
93.7739 3.52582 0.0163348 13
92.0449 3.56073 0.212247 15
92.2487 3.53974 0.369846 25
92.4185 3.61424 0.527246 29
92.3883 3.28492 0.693953 25
92.3808 3.67554 0.849612 36
92.4543 3.37482 1.01462 32
92.6176 3.72411 1.16958 32
92.6632 3.48639 1.33448 4
91.9253 3.57446 1.49863 25
92.1875 3.53968 1.65882 17
91.585 3.59995 1.81979 18
91.3626 3.26669 1.98441 29
91.5828 3.66203 2.13875 36
92.7282 3.40336 2.30669 39
92.7893 3.74951 2.46406 17
91.5635 3.56267 2.77967 13
92.5234 3.62292 3.11066 35
92.7308 3.71025 3.43597 40
92.8836 3.75561 3.76229 40
nan nan nan nan
48.2624 1.87996 4.35132 13
46.955 1.84728 5.5628 8
47.6146 1.91102 6.86912 10
23.3598 0.984105 5.39726 6
nan nan nan nan
25.0403 1.08745 8.36971 23
nan nan nan nan
5.54346 0.174746 -0.0359113 16
6.94155 0.206764 -0.0779829 19
8.35577 0.281305 -0.116633 11
9.74678 0.307586 -0.144306 12
3.83238 0.117833 1.26004 6
nan nan nan nan
13.8882 0.455221 -0.210099 6
15.3187 0.489885 -0.247113 6
16.4947 0.568146 -0.274345 5
17.35 0.551339 -0.299404 11
18.2057 0.602253 -0.300679 73
18.3767 0.612601 -0.221593 12
18.1898 0.631713 -0.135094 32
18.4101 0.648857 -0.0961816 50
18.2008 0.588251 -0.00703859 35
18.3314 0.611594 0.0428425 39
18.2626 0.634729 0.114118 42
18.2838 0.644969 0.179357 46
18.2519 0.590409 0.244529 38
18.2226 0.608453 0.31113 62
18.1919 0.651854 0.377147 28
18.1777 0.641684 0.442432 35
18.1544 0.609948 0.508719 68
18.1297 0.609 0.574375 61
18.1231 0.649867 0.637748 65
18.1278 0.643574 0.701033 65
18.1136 0.609046 0.76609 62
18.1079 0.608741 0.82989 71
18.1156 0.588358 0.861435 66
18.1103 0.653041 0.892389 47
18.1191 0.597859 0.924457 76
18.1242 0.643913 0.955096 79
18.1373 0.60879 0.98664 79
18.1441 0.610543 1.01796 47
18.1454 0.621632 1.04943 67
18.1475 0.61054 1.08122 82
18.1648 0.593644 1.11553 23
18.1689 0.655609 1.14291 19
18.1872 0.603744 1.17465 10
18.202 0.64712 1.20508 21
18.1895 0.614199 1.23791 9
18.2008 0.616109 1.26919 6
18.2118 0.627557 1.30037 9
18.2185 0.613396 1.33214 8
18.1944 0.620472 1.36466 6
28.6226 1.00259 1.04802 5
28.6894 0.996685 1.09601 97
nan nan nan nan
34.9943 1.11872 1.02029 96
92.4936 3.33821 -0.439186 15
92.6627 3.05621 -0.277385 14
92.709 3.14237 -0.10167 14
92.5767 3.15722 0.0465748 13
92.4115 3.25187 0.209963 17
92.2956 3.21892 0.373839 36
92.2158 3.28398 0.53528 29
92.1194 2.95343 0.70253 36
92.0733 3.34144 0.858198 25
92.5555 3.05506 1.01829 35
92.6594 3.41808 1.1737 32
92.6798 3.16311 1.33908 4
92.8266 3.28505 1.4984 13
92.5741 3.23098 1.66205 41
92.1117 3.2987 1.82336 35
92.4928 2.98397 1.98882 35
92.3545 3.37012 2.14449 38
92.5246 3.07259 2.31061 39
92.7162 3.43871 2.46803 38
92.7596 3.28504 2.79436 13
92.7653 3.30823 3.11805 40
92.813 3.38921 3.44168 41
93.0953 3.45512 3.77049 15
93.2745 3.08606 4.91962 8
48.2336 1.71037 4.35203 35
53.2339 1.90836 6.04142 8
nan nan nan nan
nan nan nan nan
20.9425 0.732149 5.98551 6
25.4695 1.02178 8.4794 10
nan nan nan nan
5.54886 0.15447 -0.037353 13
6.94713 0.182573 -0.0790749 16
8.36165 0.252196 -0.117447 12
9.74791 0.273477 -0.143817 12
3.83771 0.104563 1.25927 6
12.5101 0.360088 -0.188328 6
13.8996 0.409374 -0.211012 7
15.3304 0.436606 -0.247798 8
16.4918 0.507444 -0.272792 8
17.3421 0.490408 -0.297215 13
nan nan nan nan
18.3241 0.549941 -0.214103 57
18.1772 0.564496 -0.132385 52
18.2138 0.578249 -0.0725896 45
18.2128 0.52493 -0.00722289 21
18.1644 0.545654 0.0618025 47
18.2251 0.566485 0.119196 45
18.3308 0.582491 0.175805 42
18.239 0.526198 0.246884 45
18.2196 0.547815 0.312461 39
18.1793 0.584635 0.379439 41
18.17 0.577859 0.444198 46
18.1465 0.546221 0.510451 54
18.1317 0.54883 0.575239 66
18.1254 0.583389 0.638701 67
18.13 0.580249 0.701941 65
18.1107 0.545622 0.767339 64
18.1049 0.548502 0.831076 72
18.1176 0.525082 0.862345 71
18.1126 0.586621 0.893341 73
18.1161 0.534427 0.925664 75
18.1264 0.580611 0.956004 76
18.1294 0.545142 0.988109 81
18.1411 0.547023 1.01914 74
18.1475 0.55826 1.05034 74
18.1495 0.550331 1.08208 70
18.1568 0.529917 1.11693 75
18.1663 0.588825 1.1441 54
18.1792 0.539936 1.17602 7
18.1892 0.583081 1.20665 81
18.1866 0.55053 1.23903 8
18.1929 0.552248 1.2705 5
18.1989 0.563499 1.30186 5
18.1955 0.552203 1.33392 5
18.1815 0.556485 1.36609 6
18.1871 0.570897 1.39741 3
28.6928 0.896514 1.09745 98
nan nan nan nan
nan nan nan nan
92.1701 3.00436 -0.425734 29
92.3182 2.72223 -0.264022 25
92.2544 2.82068 -0.0867264 18
92.2425 2.82348 0.0584855 15
92.2181 2.90668 0.218788 15
92.1564 2.89202 0.381102 13
92.1269 2.95885 0.541484 25
92.1543 2.63257 0.706806 31
92.1045 3.02069 0.862559 35
92.1958 2.72106 1.02685 31
92.5404 3.10646 1.17926 22
92.6853 2.83946 1.34376 4
92.6982 2.94041 1.50403 15
92.5198 2.90582 1.66692 10
92.7774 2.99833 1.82674 15
nan nan nan nan
92.4206 3.0496 2.1492 13
92.4798 2.74804 2.31507 10
92.6471 3.12861 2.47203 10
92.5111 2.93689 2.797 12
92.7212 2.98274 3.12203 25
92.6493 3.05955 3.44361 17
93.0512 3.14465 3.77386 8
92.82 2.74687 4.90975 14
48.2392 1.54212 4.35444 37
52.8713 1.7108 6.01608 5
nan nan nan nan
23.4893 0.825677 5.41759 8
21.416 0.674096 6.07636 30
24.5524 0.903705 8.24629 12
nan nan nan nan
5.54947 0.135017 -0.0370734 16
6.94783 0.158238 -0.0787241 19
8.36259 0.222923 -0.117026 13
9.74891 0.239364 -0.143325 11
3.86262 0.0917361 1.25467 6
12.5114 0.316333 -0.187698 9
13.9011 0.360768 -0.210312 9
15.3368 0.385809 -0.247792 12
16.5035 0.450058 -0.273331 11
17.3636 0.430272 -0.298974 13
18.4923 0.482398 -0.334639 12
18.9364 0.502091 -0.287111 51
18.209 0.501781 -0.134974 42
18.1959 0.514035 -0.0694084 51
18.1997 0.460899 -0.00465846 29
18.1961 0.482967 0.0595262 47
18.1923 0.501839 0.123713 54
18.1985 0.514666 0.190124 42
18.1911 0.461198 0.252598 43
18.1817 0.483094 0.317075 53
18.1664 0.52069 0.381687 43
18.162 0.514097 0.445966 61
18.1434 0.482689 0.511774 66
18.1336 0.485487 0.576151 60
18.1224 0.519928 0.639987 71
18.127 0.516776 0.70321 66
18.1076 0.482227 0.768591 66
18.1069 0.482101 0.832032 77
18.1193 0.468129 0.863165 65
18.1146 0.523358 0.894251 73
18.118 0.471153 0.926576 70
18.1334 0.517443 0.956626 71
18.1412 0.482091 0.988463 74
18.153 0.483933 1.01951 64
18.1644 0.49529 1.05047 57
18.1764 0.484443 1.08178 49
18.2034 0.474018 1.11556 36
18.2132 0.52668 1.14289 45
18.2759 0.478924 1.17262 14
18.2211 0.520412 1.20625 39
nan nan nan nan
18.1698 0.488046 1.27242 6
nan nan nan nan
18.2224 0.486159 1.33397 5
28.583 0.779645 1.00285 8
28.6292 0.797701 1.05096 6
28.6908 0.796194 1.09905 96
nan nan nan nan
91.8962 2.30168 -0.568509 29
92.0053 2.67747 -0.416507 15
92.0224 2.392 -0.251905 25
92.0643 2.47712 -0.0773373 29
92.0765 2.51278 0.0665706 17
92.0878 2.58082 0.226122 18
92.0961 2.56835 0.386961 15
92.1367 2.63725 0.546111 18
92.098 2.30925 0.712359 18
92.3044 2.70475 0.864842 38
92.2997 2.40171 1.03049 22
92.3408 2.77712 1.18576 18
92.3794 2.52352 1.35041 20
92.388 2.60783 1.51039 22
92.4694 2.58122 1.67179 12
92.6123 2.66948 1.83172 8
47.6158 1.2017 2.00019 3
nan nan nan nan
nan nan nan nan
nan nan nan nan
92.5457 2.61474 2.80187 13
92.646 2.65673 3.12566 6
47.9593 1.41495 2.75047 10
76.7469 2.3255 3.46703 6
92.5591 2.41599 4.90595 13
48.2489 1.38241 4.35699 29
nan nan nan nan
23.2344 0.691154 4.37792 8
23.3287 0.738652 5.395 9
nan nan nan nan
nan nan nan nan
nan nan nan nan
5.54532 0.115466 -0.035059 16
6.94366 0.133811 -0.0769317 19
8.36343 0.193647 -0.116604 13
9.7498 0.205248 -0.142833 11
11.0996 0.231545 -0.158717 6
12.5322 0.273005 -0.190521 11
13.9025 0.307296 -0.20954 13
15.3431 0.332293 -0.247744 12
16.5051 0.392361 -0.272498 12
17.3651 0.369572 -0.298096 12
18.504 0.417984 -0.334961 14
19.0524 0.431874 -0.299878 36
nan nan nan nan
nan nan nan nan
nan nan nan nan
nan nan nan nan
21.3115 0.513077 -0.197742 32
18.2699 0.452784 0.184097 42
18.2175 0.401364 0.251075 13
18.2133 0.413892 0.315313 41
18.1881 0.457717 0.380823 52
18.1737 0.450887 0.446027 50
18.16 0.41965 0.51146 60
18.1403 0.415916 0.576765 60
18.1342 0.45687 0.640149 65
18.1388 0.453701 0.703408 64
18.1292 0.41944 0.768144 66
18.1285 0.416151 0.831701 71
18.1159 0.401566 0.86444 70
18.1314 0.460466 0.894246 67
18.1395 0.408319 0.926304 64
18.1601 0.454729 0.956099 68
18.1129 0.418035 0.991053 64
18.1696 0.420884 1.01962 54
18.1361 0.431139 1.05295 42
18.1582 0.414162 1.0838 39
28.3804 0.634595 0.620441 19
18.1451 0.461305 1.1471 36
28.4195 0.643942 0.712765 7
nan nan nan nan
28.3034 0.661048 0.816628 7
nan nan nan nan
28.6068 0.686749 0.90355 4
nan nan nan nan
28.5806 0.679724 1.00447 6
28.6418 0.697983 1.05207 11
28.6984 0.696141 1.10034 85
nan nan nan nan
47.4815 1.02158 0.677038 14
47.5641 1.21671 0.754854 17
47.6798 1.07205 0.837284 10
91.9383 2.12046 -0.0691862 15
47.6472 1.13412 1.00348 13
47.6529 1.16982 1.086 8
91.9496 2.24308 0.394314 14
91.9955 2.31185 0.553116 14
47.6603 1.02676 1.33751 38
47.6666 1.22895 1.41761 34
47.6864 1.07351 1.50288 30
47.7127 1.25968 1.58313 25
47.7314 1.13742 1.66805 4
47.7608 1.1821 1.75053 29
47.7765 1.16808 1.83402 8
47.8505 1.21394 1.9166 6
47.6297 1.03574 2.0026 43
47.6749 1.23877 2.08286 49
47.7285 1.08411 2.16847 48
47.7536 1.27038 2.24921 43
47.8646 1.18597 2.41806 38
47.9771 1.21006 2.58618 29
47.804 1.24342 2.75038 36
47.8504 1.27425 2.91772 41
48.1001 1.08683 3.51302 38
48.1185 1.21073 4.35283 29
48.3957 1.2367 5.68013 11
nan nan nan nan
23.1529 0.652335 5.37023 23
21.1448 0.51818 6.0261 10
25.9282 0.769266 8.59796 12
nan nan nan nan
5.55049 0.0961061 -0.0365114 19
6.94898 0.109563 -0.0780196 16
8.36416 0.164367 -0.116181 17
9.76033 0.171304 -0.144494 14
11.1102 0.194831 -0.160098 6
12.5332 0.229173 -0.189887 14
13.9035 0.261112 -0.208871 10
15.3543 0.27346 -0.248342 12
16.5164 0.334859 -0.273031 11
17.3763 0.309043 -0.298531 12
18.5005 0.353208 -0.333397 14
19.1134 0.369764 -0.306168 13
20.1436 0.414026 -0.360037 16
21.0105 0.446006 -0.387926 10
21.6659 0.405245 -0.385208 13
nan nan nan nan
21.368 0.439725 -0.202317 32
21.4849 0.456677 -0.135206 6
21.6225 0.405069 -0.0757139 23
21.4502 0.416305 0.0160793 8
18.1946 0.394276 0.381298 42
18.2052 0.388023 0.444383 41
18.1315 0.358783 0.51479 40
18.1118 0.355125 0.57999 46
18.1008 0.392767 0.64369 69
18.1104 0.389702 0.706469 50
18.0856 0.358385 0.772075 54
18.095 0.35215 0.834876 55
18.1174 0.331963 0.86545 39
18.098 0.396376 0.897299 82
18.1209 0.344587 0.928408 63
18.2515 0.39322 0.951837 123
18.1342 0.355171 0.990854 8
18.1509 0.360201 1.02157 67
18.1575 0.368207 1.05282 8
18.2044 0.354796 1.08239 29
28.3577 0.525112 0.623238 19
nan nan nan nan
28.4566 0.545366 0.712618 7
nan nan nan nan
28.5603 0.567307 0.807389 9
nan nan nan nan
28.624 0.587169 0.904421 4
28.5716 0.557945 0.956756 5
28.6429 0.576146 1.00389 6
28.6591 0.59829 1.05302 31
28.7007 0.59594 1.10179 58
47.5339 1.02901 0.592482 14
47.3199 0.852823 0.684042 37
47.3681 1.05449 0.762372 36
47.5584 0.903214 0.842747 38
47.5849 0.939352 0.932932 38
47.4362 0.955135 1.01051 31
47.5818 1.00189 1.08985 38
47.6134 0.996512 1.17243 38
47.5839 1.0314 1.25545 37
47.5486 0.858309 1.34153 37
47.5455 1.06806 1.42143 35
47.5549 0.904486 1.5067 37
47.5568 1.08947 1.58694 37
47.5655 0.950763 1.67188 37
47.6247 1.01243 1.75368 37
47.6453 0.998503 1.8369 37
47.7445 1.04453 1.91921 40
47.698 0.870693 2.00502 39
47.7037 1.08127 2.08519 38
47.707 0.917053 2.1708 39
47.7028 1.10246 2.25133 38
47.7235 1.01585 2.41922 37
47.7561 1.03777 2.58585 33
47.8228 1.08529 2.75291 30
47.8096 1.10624 2.91927 33
48.0236 0.917485 3.51294 33
48.0826 1.03363 4.35343 33
48.2951 1.05722 5.67473 20
nan nan nan nan
nan nan nan nan
nan nan nan nan
nan nan nan nan
nan nan nan nan
5.55089 0.0766481 -0.0362291 16
6.9494 0.0864391 -0.0776837 16
8.36479 0.135086 -0.115757 12
9.76586 0.137219 -0.145075 12
11.1061 0.153951 -0.158547 9
12.5341 0.185337 -0.18925 11
13.9242 0.212796 -0.211313 13
15.3701 0.217301 -0.249702 12
16.5126 0.277036 -0.27151 11
17.3823 0.251409 -0.29835 12
18.5017 0.28854 -0.332457 13
19.4075 0.307607 -0.340615 12
20.145 0.343622 -0.359015 14
21.0269 0.372837 -0.388559 10
21.6674 0.325741 -0.384052 13
21.9189 0.348145 -0.334798 37
nan nan nan nan
21.5213 0.382214 -0.137585 6
23.4155 0.352944 -0.246921 23
21.5064 0.342229 0.0120924 8
nan nan nan nan
21.5188 0.382752 0.161481 9
21.6803 0.353757 0.224272 18
21.542 0.347198 0.31128 18
nan nan nan nan
nan nan nan nan
18.1168 0.295705 0.770955 32
18.1162 0.289266 0.834505 35
27.0849 0.396638 0.303161 38
18.1293 0.333713 0.896386 66
18.137 0.284695 0.928394 5
18.1629 0.327873 0.957937 41
28.3032 0.457547 0.424033 20
18.1821 0.297305 1.02087 14
28.3933 0.477476 0.518025 21
28.2515 0.452202 0.57519 30
28.3595 0.42113 0.62475 19
28.3899 0.522468 0.666375 5
28.4583 0.450963 0.71399 7
28.5842 0.514646 0.757272 6
28.4673 0.466011 0.812809 9
28.5792 0.474643 0.857939 6
23.8651 0.405925 1.08846 7
28.6283 0.459065 0.956196 5
23.8635 0.392584 1.17203 13
28.6661 0.498312 1.05431 37
nan nan nan nan
29.2433 0.532362 1.13691 12
23.8892 0.345267 1.33858 20
23.8887 0.447042 1.37874 14
nan nan nan nan
47.363 0.769572 0.940393 33
23.8727 0.393416 1.50487 11
47.4201 0.832889 1.09542 37
47.3867 0.826303 1.17884 36
47.4973 0.863669 1.25927 33
23.8662 0.345616 1.67216 25
23.86 0.451336 1.71228 17
23.847 0.3695 1.75522 8
47.5804 0.923862 1.58917 31
92.0267 1.5016 1.36772 1
47.578 0.845312 1.75635 29
47.6185 0.831685 1.83942 30
47.6428 0.875968 1.92181 35
95.4155 1.4124 2.01249 17
95.3883 1.83174 2.17285 30
95.4237 1.50279 2.34422 26
95.3315 1.8709 2.50491 18
nan nan nan nan
47.8244 0.872299 2.58907 10
nan nan nan nan
nan nan nan nan
48.2063 0.752755 3.52105 32
48.1059 0.857887 4.35696 34
nan nan nan nan
48.13 0.924182 6.93346 26
25.6001 0.547561 5.7287 8
21.5551 0.378099 6.10597 5
nan nan nan nan
nan nan nan nan
5.55123 0.0571889 -0.0359461 12
6.94975 0.0633144 -0.0773466 10
8.3653 0.107267 -0.115352 13
9.76639 0.103045 -0.144577 12
11.1165 0.115202 -0.159896 12
12.5397 0.141556 -0.189474 14
13.9151 0.163988 -0.20903 13
15.3659 0.166197 -0.248231 14
16.5186 0.219374 -0.271353 12
17.3881 0.193738 -0.298165 14
18.5027 0.223868 -0.331515 14
19.4136 0.239835 -0.340227 11
20.1462 0.273214 -0.357991 14
21.0332 0.303095 -0.388109 10
21.6685 0.250019 -0.382948 8
21.9152 0.271485 -0.333152 33
22.1515 0.300928 -0.28075 36
22.8956 0.330356 -0.273226 6
23.4216 0.271185 -0.246206 23
24.3352 0.302265 -0.248775 8
26.8618 0.393542 -0.389369 17
27.4279 0.395758 -0.343383 9
27.2373 0.349933 -0.230739 18
27.3946 0.345943 -0.147421 18
27.2516 0.40004 -0.0414784 29
27.1836 0.397824 0.0589287 21
27.186 0.350081 0.154759 25
27.0878 0.338139 0.256476 36
27.0962 0.30688 0.303846 38
18.1104 0.270097 0.898526 8
27.4259 0.338102 0.378704 17
28.391 0.41616 0.370138 25
28.3097 0.358763 0.425195 20
28.3424 0.365923 0.472836 24
28.3599 0.37785 0.521297 21
28.3728 0.355043 0.570573 30
28.3908 0.327391 0.624667 31
28.3816 0.423179 0.668287 5
28.4597 0.356555 0.715367 9
28.5959 0.414975 0.75829 6
28.4988 0.366997 0.813005 9
28.5757 0.374784 0.859593 7
23.8765 0.32273 1.08929 96
23.8334 0.298855 1.13289 5
23.8647 0.309263 1.17325 53
23.8558 0.331653 1.21485 65
23.887 0.333764 1.25547 48
23.8629 0.351771 1.29758 12
23.8603 0.26153 1.34063 9
23.8602 0.363181 1.38074 9
23.8674 0.285797 1.42333 12
23.8632 0.304152 1.46894 12
23.889 0.310271 1.50577 73
23.8644 0.336628 1.5475 13
23.8851 0.338596 1.58872 28
23.9204 0.353298 1.62961 28
23.8672 0.262307 1.67338 13
23.8815 0.36836 1.71325 11
23.8231 0.28596 1.75669 10
23.8722 0.379906 1.79643 5
91.9412 1.19528 1.37278 1
91.9955 1.31181 1.53125 39
91.9714 1.29882 1.69205 35
92.1457 1.36902 1.85127 31
91.8001 1.0383 2.01678 13
91.6096 1.43926 2.17073 10
92.1236 1.1292 2.33706 13
92.1828 1.48729 2.49295 13
92.1231 1.3163 2.81663 15
92.1087 1.37115 3.13721 0
91.9332 1.44701 3.45483 15
92.162 1.48961 3.77964 10
91.9735 1.11675 4.90548 12
47.9537 0.687872 4.35182 30
nan nan nan nan
nan nan nan nan
nan nan nan nan
21.7819 0.306237 6.15016 5
nan nan nan nan
nan nan nan nan
5.5515 0.0377286 -0.0356622 16
nan nan nan nan
8.36575 0.0765172 -0.114904 13
9.77168 0.068905 -0.145154 9
11.1218 0.0744031 -0.160256 13
12.5402 0.0955059 -0.188801 11
13.9108 0.115289 -0.207533 11
15.3715 0.115196 -0.248211 11
16.5243 0.161675 -0.271193 12
17.3988 0.129988 -0.298545 12
18.5035 0.159194 -0.33057 14
19.4293 0.172113 -0.341035 11
20.1472 0.202802 -0.356963 14
21.0144 0.2257 -0.384722 17
21.6694 0.170507 -0.381786 17
21.9211 0.194945 -0.332563 17
22.1476 0.22347 -0.279107 36
22.847 0.245825 -0.26705 6
23.4375 0.185374 -0.246385 31
24.2815 0.216748 -0.242462 8
26.8582 0.299636 -0.387557 17
27.3197 0.293977 -0.332537 8
27.2485 0.250112 -0.230097 18
