# .PCD v0.7 - Point Cloud Data file format
VERSION 0.7
FIELDS x y z intensity
SIZE 4 4 4 4
TYPE F F F F
COUNT 1 1 1 1
WIDTH 1752
HEIGHT 1
VIEWPOINT 0 0 0 1 0 0 0
POINTS 1752
DATA ascii
9.59159 5.60034 -0.440051 6
10.9704 6.49258 -0.480995 5
12.3535 7.40662 -0.515985 5
13.8066 8.36222 -0.555648 4
15.3118 9.3316 -0.605378 4
16.5892 10.2143 -0.647282 4
17.5188 10.7646 -0.678155 4
18.6931 11.5632 -0.716681 9
19.7605 12.2614 -0.73853 4
20.6491 12.8803 -0.771758 5
21.7786 13.6404 -0.825629 6
22.7497 14.1899 -0.847374 5
22.8674 14.2895 -0.770279 8
22.9647 14.3924 -0.690583 10
27.3572 17.3022 -1.04705 10
27.6268 17.3706 -0.965346 14
27.6137 17.3889 -0.853608 9
33.6973 21.4834 -1.29596 9
35.8707 22.8889 -1.34614 10
35.6741 22.6799 -1.18213 10
35.6902 22.673 -1.03812 14
35.8547 22.8848 -0.907523 14
36.2411 23.1213 -0.788424 20
36.523 23.2165 -0.658169 20
39.5625 25.1886 -0.695632 13
34.4162 21.7693 -0.310616 39
39.4829 25.2606 -0.531898 14
34.3891 21.768 -0.170195 9
nan nan nan nan
39.8589 25.3807 -0.308818 28
39.8745 25.3906 -0.22862 11
42.0124 26.8104 -0.24726 13
41.9503 26.7287 -0.158778 30
42.0687 26.7546 -0.0696796 13
41.7614 26.7363 0.0186898 26
42.0181 26.7414 0.0945148 37
41.8302 26.7503 0.186234 35
42.025 26.7859 0.264876 17
41.8641 26.6802 0.355391 34
42.0366 26.8132 0.435281 13
41.9155 26.6826 0.524007 34
41.9451 26.7321 0.608398 30
41.8946 26.7394 0.694878 37
41.9007 26.7329 0.779816 33
41.8369 26.7416 0.86639 26
42.1327 26.7207 0.945097 33
42.0139 26.8774 1.03386 32
41.1196 26.1001 1.12955 11
41.3532 26.302 1.21912 10
41.6292 26.5023 1.29233 8
41.7698 26.6446 1.37635 5
42.6157 27.1879 1.45701 6
42.919 27.4278 1.54326 30
42.9817 27.2497 1.62757 29
42.8842 27.4356 1.71811 29
42.9756 27.2865 1.80247 32
42.8788 27.4521 1.89279 30
42.9503 27.3421 1.97787 30
42.9129 27.3798 2.06582 34
42.9219 27.3645 2.15272 31
42.9099 27.4083 2.24077 34
43.0009 27.2487 2.32488 34
42.8772 27.4176 2.41528 34
42.9801 27.2761 2.49979 36
42.8656 27.43 2.58987 35
42.5677 27.1302 2.75366 37
42.6136 27.1801 2.92859 33
40.777 26.0168 3.03891 37
40.8184 26.063 3.2068 37
40.3947 25.538 3.75553 25
43.0265 27.3694 4.77683 51
43.0526 27.3602 6.13957 44
43.0857 27.381 7.46851 37
43.0391 27.3951 9.63829 50
43.1466 27.1519 11.8824 58
43.1218 27.3251 15.1327 52
4.79991 2.44401 -0.390236 8
5.90682 3.17795 -0.374856 9
7.14792 3.9656 -0.405916 8
8.3563 4.78226 -0.422566 6
9.61097 5.57061 -0.440623 6
10.9928 6.45802 -0.48166 6
12.3833 7.36993 -0.51754 5
13.83 8.31728 -0.55574 4
15.34 9.27916 -0.605674 4
16.6205 10.1574 -0.647708 4
17.5561 10.7072 -0.67926 4
18.7207 11.4935 -0.716183 11
19.7842 12.1886 -0.737587 4
20.6854 12.8064 -0.772042 4
21.8259 13.5681 -0.827022 5
22.8073 14.1196 -0.849795 5
22.9813 14.2607 -0.779104 9
23.0438 14.335 -0.695184 10
27.4423 17.2267 -1.05139 9
27.7748 17.3349 -0.975792 14
27.6836 17.309 -0.856487 8
33.7761 21.3721 -1.29853 8
34.3635 21.7312 -1.21164 33
34.4443 21.7073 -1.07715 37
34.4142 21.6793 -0.935221 38
34.3758 21.7452 -0.795036 33
34.3736 21.7271 -0.655437 36
34.4064 21.6636 -0.517142 34
34.4123 21.6591 -0.378405 36
34.4291 21.612 -0.309149 31
34.3769 21.7352 -0.238701 33
34.3893 21.6027 -0.168298 12
39.8998 25.3117 -0.390914 23
42.2719 26.7559 -0.429178 10
39.9921 25.2741 -0.232652 28
42.2145 26.7382 -0.255074 20
42.1057 26.6366 -0.164363 23
42.1953 26.6331 -0.0738448 26
42.1013 26.7553 0.00601578 23
42.1908 26.65 0.0887263 20
42.1159 26.7334 0.176546 23
42.1726 26.6782 0.260274 17
42.1329 26.6521 0.347035 14
42.243 26.7436 0.429154 30
42.1043 26.6124 0.51861 13
42.1471 26.6602 0.602856 23
42.1175 26.6813 0.689073 19
42.1362 26.6829 0.774011 20
42.1184 26.7219 0.859993 14
42.2425 26.5881 0.942051 17
42.1283 26.748 1.03079 23
41.5336 26.1694 1.12261 12
41.524 26.2228 1.21564 10
nan nan nan nan
41.8835 26.5161 1.37347 5
42.5091 26.9121 1.45519 6
42.9474 27.238 1.54063 20
42.9925 27.0491 1.62481 29
42.9001 27.2377 1.71519 21
42.9866 27.0859 1.79937 32
42.8817 27.2561 1.88962 26
42.9574 27.1388 1.97439 33
42.9244 27.1792 2.0622 29
42.9333 27.1639 2.14891 31
42.9173 27.205 2.23673 30
43.0117 27.0481 2.32073 27
42.8931 27.2198 2.41102 25
42.9995 27.0809 2.49546 24
42.8642 27.2313 2.58514 17
40.3267 25.4694 2.68925 20
40.8345 25.8181 2.86853 12
40.8467 25.8645 3.03551 36
40.3016 25.5385 3.18077 36
40.3116 25.2898 3.74372 33
43.0172 27.1551 4.76624 42
43.077 27.1677 6.12917 31
43.0728 27.1643 7.45071 43
43.0396 27.187 9.61737 50
43.155 26.9497 11.8585 57
43.1155 27.1231 15.0988 52
4.80451 2.42853 -0.388376 8
5.92171 3.16367 -0.37685 8
7.16564 3.94702 -0.4077 6
8.3769 4.7595 -0.424222 8
9.63024 5.5408 -0.441195 6
11.0152 6.42338 -0.482325 6
12.4089 7.33043 -0.518299 5
13.8547 8.27004 -0.555874 4
15.3597 9.22127 -0.604647 4
16.6557 10.1031 -0.648752 4
17.5849 10.6442 -0.679181 4
18.7564 11.4292 -0.716805 12
19.8265 12.1232 -0.738842 4
20.7257 12.7352 -0.772841 5
21.8563 13.4847 -0.826418 5
22.7685 13.987 -0.841124 5
23.0809 14.2166 -0.786152 12
23.1187 14.2745 -0.699344 10
27.5314 17.1536 -1.05616 9
27.8979 17.2821 -0.983774 11
31.3067 19.5176 -1.19469 6
33.7541 21.1954 -1.29204 8
34.3762 21.5742 -1.20847 33
34.503 21.5799 -1.07802 31
34.456 21.5412 -0.934852 30
34.4346 21.618 -0.79604 32
34.4323 21.5999 -0.65651 31
34.4565 21.5309 -0.517737 31
34.4661 21.5205 -0.379216 31
34.4916 21.4874 -0.310642 29
34.3854 21.5754 -0.237122 41
34.4896 21.5025 -0.171911 29
39.9836 25.1733 -0.393299 31
42.5833 26.7528 -0.442988 11
42.2842 26.5596 -0.342221 13
34.4781 21.5424 0.105813 20
42.3121 26.5564 -0.172096 15
34.4745 21.4657 0.252071 12
42.2237 26.6309 0.0020802 23
34.4958 21.4959 0.382827 14
42.2634 26.6253 0.171825 23
42.6015 26.7513 0.246102 12
42.2928 26.552 0.342139 26
nan nan nan nan
42.3317 26.5458 0.512108 30
42.3995 26.6196 0.596006 13
42.3195 26.6084 0.683745 29
42.3004 26.5856 0.769722 26
42.287 26.6274 0.855772 17
34.5367 21.4435 1.07469 23
34.4429 21.5727 1.14667 11
34.5065 21.457 1.21391 9
41.7628 26.1664 1.21123 8
34.5109 21.5174 1.35291 10
42.2446 26.547 1.36887 8
42.5481 26.7321 1.45268 5
42.9246 27.0158 1.53815 17
34.5614 21.4405 1.62866 28
34.4588 21.5724 1.70063 14
34.5507 21.4665 1.76773 30
34.4683 21.6032 1.83964 28
34.5366 21.5151 1.90724 36
34.5136 21.5498 1.97725 32
42.9228 26.9501 2.14487 17
42.9532 27.0209 2.23311 26
34.5759 21.4392 2.18316 28
34.4725 21.5706 2.25494 38
34.551 21.4561 2.32208 39
34.4594 21.5867 2.39387 36
34.5068 21.5265 2.53144 11
40.9664 25.7064 2.86715 33
40.92 25.7148 3.03226 32
40.2982 25.3419 3.17455 30
40.8667 25.4517 3.76591 5
40.8869 25.5787 4.59868 33
41.1812 25.743 5.91466 23
43.0548 26.9453 7.43235 44
43.01 26.9605 9.59095 50
43.1252 26.7242 11.8257 50
43.0885 26.8986 15.057 56
4.82087 2.41981 -0.392856 8
5.9326 3.14676 -0.377175 8
7.17926 3.92576 -0.408107 8
8.38519 4.72872 -0.422376 6
9.64941 5.51093 -0.441768 6
11.0333 6.38601 -0.482097 5
12.4343 7.29085 -0.519057 5
13.875 8.22005 -0.555286 5
15.3891 9.1662 -0.60499 4
16.6907 10.0487 -0.649796 4
17.6177 10.5839 -0.679693 4
18.8003 11.3701 -0.71855 14
19.8602 12.0523 -0.739028 4
20.749 12.6531 -0.771572 5
21.8906 13.404 -0.826312 5
22.8128 13.9085 -0.842093 5
23.2225 14.1989 -0.797858 9
23.2353 14.2406 -0.707983 9
27.6454 17.0962 -1.06352 8
28.0586 17.2528 -0.995482 11
31.3409 19.3904 -1.19355 8
33.8403 21.0894 -1.29537 8
34.4805 21.4767 -1.21322 30
34.5612 21.4523 -1.07889 37
34.5561 21.4407 -0.939043 37
34.5265 21.5123 -0.799509 37
34.5326 21.4995 -0.660491 34
34.5944 21.4547 -0.524077 36
34.562 21.4173 -0.382732 33
35.7613 22.1251 -0.38309 30
34.4855 21.4753 -0.240786 33
35.8734 22.222 -0.245749 28
34.5105 21.4664 -0.103098 33
34.2357 21.2063 -0.0190289 37
34.5412 21.4018 0.0348922 19
42.7744 26.6903 -0.277972 39
34.5407 21.3849 0.173718 24
34.2748 21.1658 0.261414 14
34.4963 21.4633 0.313627 17
42.7674 26.6125 0.0682887 13
34.5322 21.4615 0.451005 17
42.8882 26.7301 0.236747 31
34.5407 21.3909 0.589486 10
42.8159 26.7036 0.412085 38
34.5466 21.3698 0.727849 6
42.7073 26.6026 0.587697 13
34.5651 21.4392 0.866079 9
34.5573 21.4259 0.935551 20
34.569 21.4745 1.00482 23
42.8277 26.5552 0.929568 29
42.68 26.6959 1.01968 13
42.685 26.5045 1.10434 12
nan nan nan nan
42.2587 26.2927 1.28084 8
42.5855 26.5623 1.36437 9
34.5968 21.4405 1.48961 12
34.5735 21.4585 1.55944 30
42.9567 26.6138 1.61939 29
42.8619 26.7995 1.70928 30
42.9553 26.6532 1.79303 20
42.8563 26.826 1.88284 11
42.9355 26.7015 1.96703 34
42.9151 26.76 2.05469 20
34.5914 21.4182 2.04408 9
34.5846 21.455 2.11414 14
42.9717 26.6101 2.31154 30
42.8506 26.779 2.40127 24
40.5473 25.1076 2.43742 14
40.4661 25.2782 2.52247 13
40.5079 25.1977 2.68409 17
41.0433 25.559 2.86409 35
40.9086 25.511 3.02611 35
41.1647 25.7041 3.202 31
40.8331 25.2351 3.75677 11
40.9469 25.4114 4.59341 32
41.2293 25.5667 5.90694 33
42.4326 26.3425 7.33111 40
43.1209 26.8249 9.59129 51
43.1773 26.5515 11.8129 40
43.1258 26.716 15.036 45
4.82917 2.40674 -0.393106 8
5.93552 3.1247 -0.374157 8
7.19281 3.90445 -0.408514 8
8.40153 4.7032 -0.422865 5
9.66434 5.47835 -0.441327 6
11.0554 6.35124 -0.482761 6
12.4595 7.25118 -0.519815 5
13.8993 8.17268 -0.555419 5
15.4167 9.11354 -0.605284 4
16.7172 9.98879 -0.649604 4
17.646 10.5208 -0.679613 4
18.8732 11.3295 -0.724228 11
19.8936 11.9814 -0.739214 4
20.7929 12.5844 -0.772887 4
21.9161 13.3179 -0.825204 5
22.8569 13.8299 -0.843061 6
23.3473 14.1696 -0.807715 12
23.3393 14.198 -0.715288 13
27.7173 17.0114 -1.06659 6
28.211 17.2173 -1.00638 9
31.4083 19.2847 -1.19557 9
33.8379 20.9265 -1.29075 8
34.5803 21.3761 -1.21762 12
35.5574 21.9216 -1.15638 20
35.5947 21.9367 -1.01599 29
34.9336 21.6075 -0.826133 31
35.895 22.204 -0.751866 25
35.8235 22.0714 -0.601393 35
35.7787 22.0257 -0.454509 32
34.2898 21.0234 -0.294393 40
35.6338 22.0436 -0.303964 33
34.3012 21.0549 -0.157941 39
36.051 22.2838 -0.182451 31
34.263 21.061 -0.0189003 35
42.8606 26.5204 -0.366737 53
34.2859 21.0917 0.11718 28
42.8886 26.5169 -0.194996 29
34.3948 21.0792 0.257248 20
42.8129 26.601 -0.0196836 31
43.0668 26.5979 0.0576279 33
42.8401 26.5869 0.152183 33
43.2006 26.7233 0.226505 35
42.8779 26.5181 0.323841 37
43.183 26.732 0.401122 33
42.9212 26.5141 0.495343 37
42.9898 26.5777 0.58004 31
42.8965 26.5693 0.668961 34
42.8605 26.5358 0.756114 34
42.8597 26.5862 0.8427 59
43.123 26.5375 0.923249 32
42.9542 26.6661 1.01412 34
42.9843 26.4901 1.09881 37
42.6201 26.31 1.19836 32
42.4684 26.2238 1.27701 9
42.7117 26.4387 1.36136 13
42.7294 26.4394 1.44714 6
42.9391 26.6132 1.53305 12
41.8399 25.7045 1.6177 20
43.01 26.6885 1.70655 29
43.1157 26.5497 1.79045 31
42.9708 26.6935 1.88016 33
43.0327 26.558 1.96426 31
42.9829 26.5978 2.05165 20
42.9495 26.5557 2.13742 35
42.9762 26.6236 2.22526 30
41.5926 25.5358 2.28579 14
40.7085 25.2105 2.35872 9
40.7869 25.0659 2.43779 28
40.5331 25.1273 2.51937 28
40.7518 25.1591 2.68552 20
41.1239 25.4141 2.86117 35
40.8962 25.3076 3.01998 34
41.153 25.4997 3.19543 30
40.2913 24.6996 3.7209 35
40.9975 25.2482 4.58795 32
40.6701 25.0168 5.83572 25
42.1299 25.9488 7.27427 33
43.2313 26.6889 9.59163 42
43.1041 26.3008 11.77 31
43.4236 26.6983 15.0981 42
4.83826 2.39233 -0.39338 6
5.95025 3.11028 -0.376152 8
7.20222 3.88052 -0.407544 8
8.41778 4.67762 -0.423354 5
9.68329 5.44836 -0.4419 6
11.0732 6.31375 -0.482533 6
12.4846 7.21142 -0.520574 5
13.9305 8.1234 -0.55636 5
15.4472 9.05578 -0.605673 4
16.7477 9.93149 -0.650029 5
17.6783 10.4602 -0.680125 4
18.9083 11.2647 -0.724853 8
19.9226 11.8984 -0.738453 4
20.8282 12.5102 -0.773168 4
21.9497 13.2371 -0.825094 5
22.9091 13.7564 -0.844996 6
23.4688 14.1265 -0.8168 6
23.4432 14.1548 -0.7226 12
nan nan nan nan
28.3467 17.1703 -1.01563 6
31.465 19.1574 -1.19621 9
33.8727 20.788 -1.28953 9
34.3217 21.0482 -1.19132 39
34.3175 20.9704 -1.05137 44
34.3406 20.9606 -0.915002 40
34.2878 21.0326 -0.775558 50
34.2978 21.0226 -0.638432 44
34.3251 20.9566 -0.501402 58
34.3381 20.9404 -0.364453 40
35.7362 21.7535 -0.377027 29
34.2842 21.0198 -0.225396 54
34.3575 20.9282 -0.159231 13
34.3469 21.035 -0.0911498 41
35.9 21.9305 -0.10003 28
34.3387 20.9467 0.0474017 21
36.1384 22.0976 0.0325227 25
34.4384 20.9768 0.180444 11
43.4821 26.6033 -0.12331 20
34.396 21.072 0.31916 9
43.3539 26.5736 0.0474221 30
43.1607 26.5851 0.141181 29
43.5049 26.7093 0.216521 29
43.2493 26.5479 0.312157 29
43.4282 26.6808 0.393776 32
43.285 26.5182 0.484995 34
43.2984 26.5571 0.571674 36
43.2257 26.5726 0.66058 35
43.2107 26.5525 0.747768 32
43.2439 26.6244 0.83423 26
43.4101 26.5128 0.91705 31
43.2582 26.6534 1.00809 34
43.3305 26.5032 1.09264 37
43.0891 26.3818 1.19124 26
42.6573 26.1306 1.27326 9
42.8586 26.328 1.35819 9
43.1091 26.4752 1.44292 11
41.8435 25.7173 1.53379 10
41.9802 25.594 1.61493 34
41.9152 25.7915 1.70237 30
43.3225 26.4746 1.78802 36
43.1613 26.5987 1.87771 35
41.9614 25.6604 1.95263 29
41.6795 25.572 2.03575 31
41.6329 25.5226 2.1185 33
41.6691 25.5945 2.20352 29
41.8299 25.4872 2.28539 32
41.6501 25.6113 2.37117 20
43.3354 26.4695 2.48348 14
43.2747 26.6571 2.57442 35
43.2846 26.5597 2.74618 36
41.2124 25.2743 2.8585 31
41.1914 25.2992 3.0244 29
41.4871 25.5049 3.20185 35
40.3181 24.5256 3.71518 38
41.3562 25.269 4.60469 34
40.7702 24.877 5.83384 31
42.1069 25.7343 7.25601 33
43.4959 26.6496 9.62105 44
nan nan nan nan
43.7306 26.674 15.1614 35
4.84989 2.38229 -0.395727 8
5.96096 3.09327 -0.376477 8
7.21155 3.85657 -0.406573 8
8.43394 4.65198 -0.423842 5
9.70214 5.4183 -0.442472 6
11.0951 6.27884 -0.483197 5
12.5013 7.16632 -0.519735 5
13.9516 8.07099 -0.555813 5
15.4686 9.00284 -0.605257 4
16.7779 9.87411 -0.650454 5
17.7146 10.4022 -0.681229 4
18.9474 11.2024 -0.726039 4
19.9617 11.8266 -0.739235 4
20.8716 12.4412 -0.774483 4
21.983 13.1562 -0.824983 5
22.9611 13.6828 -0.846931 6
23.592 14.0893 -0.826287 9
23.5598 14.1191 -0.731266 13
24.7063 14.8572 -0.750922 4
nan nan nan nan
31.518 19.0353 -1.19675 9
33.9407 20.6708 -1.29133 9
34.3484 20.9029 -1.18956 11
nan nan nan nan
34.2055 20.7063 -0.900983 12
34.3482 20.9086 -0.776843 13
34.3835 20.9145 -0.64152 10
nan nan nan nan
35.7611 21.6597 -0.448564 49
34.0365 20.5343 -0.275314 43
nan nan nan nan
35.8581 21.7031 -0.239317 36
35.7866 21.7764 -0.165124 10
35.8915 21.7559 -0.0980754 14
36.0509 21.8554 -0.03409 28
34.1441 20.6793 0.126088 41
36.3419 21.9944 0.0973074 9
34.218 20.637 0.266402 42
34.4947 20.9715 0.315922 14
43.6837 26.574 0.0355767 34
43.4268 26.547 0.13213 33
43.7928 26.683 0.207083 30
43.5154 26.5092 0.303813 33
43.7287 26.6628 0.384768 34
43.5685 26.4798 0.476869 33
43.6494 26.5711 0.56222 31
43.5258 26.5553 0.652869 32
43.4853 26.5193 0.741033 20
43.4594 26.5541 0.829026 32
43.7401 26.5127 0.910083 34
43.622 26.6761 1.00111 33
43.6816 26.5168 1.08637 20
43.6226 26.5001 1.18346 30
43.007 26.1468 1.2681 12
43.0689 26.2563 1.35456 9
43.1249 26.2807 1.44051 9
41.9669 25.5961 1.53098 32
42.048 25.438 1.61224 29
41.9414 25.6091 1.69958 26
43.6354 26.4644 1.78589 14
43.5719 26.6409 1.87641 30
42.1056 25.5618 1.95048 35
41.9466 25.5415 2.0347 17
41.7387 25.3915 2.116 36
41.6946 25.413 2.19996 30
41.9568 25.3686 2.28328 25
41.7689 25.4882 2.36899 31
41.8398 25.3347 2.44967 32
41.6608 25.4297 2.53434 25
41.7575 25.4008 2.70164 39
41.3046 25.1368 2.85596 35
43.6984 26.6736 3.10409 35
43.6727 26.667 3.2789 32
40.6285 24.5282 3.72436 28
43.77 26.5766 4.77203 24
40.8654 24.7438 5.83209 36
41.9648 25.4468 7.22167 35
43.8614 26.6715 9.66931 42
18.7531 10.8852 5.88106 8
44.0503 26.6554 15.2285 36
4.85766 2.36978 -0.395965 6
5.97161 3.07622 -0.376801 8
7.22893 3.8377 -0.408358 8
8.4459 4.62371 -0.423163 8
9.71673 5.38558 -0.44203 6
11.1168 6.24385 -0.483862 5
12.5219 7.1238 -0.519693 5
13.9782 8.02827 -0.556625 5
15.5025 8.95769 -0.606826 4
16.8079 9.81663 -0.650879 5
17.7464 10.3415 -0.68174 4
18.961 11.1242 -0.72385 4
19.9964 11.7613 -0.73989 4
20.919 12.3746 -0.776317 5
22.016 13.0753 -0.82487 5
23.0382 13.6247 -0.85177 6
23.7315 14.0724 -0.837965 8
23.7061 14.1011 -0.743082 12
24.7367 14.7614 -0.75034 5
28.9314 17.2685 -1.06482 8
31.5469 18.9133 -1.19549 9
34.0167 20.5586 -1.2939 11
34.4252 20.7893 -1.19213 29
35.3948 21.3172 -1.13159 10
35.4311 21.3146 -0.992379 34
34.2387 20.6787 -0.765745 28
34.1808 20.6265 -0.624744 39
35.7851 21.5404 -0.591029 34
35.7817 21.513 -0.447662 36
34.2282 20.5096 -0.284746 48
35.8157 21.6515 -0.308246 32
34.1374 20.4693 -0.14376 78
34.0602 20.533 -0.0728912 17
34.2098 20.5439 -0.0118502 37
36.0759 21.7016 -0.0339502 36
34.2202 20.5664 0.123696 31
34.3253 20.5915 0.187383 43
34.2274 20.4986 0.26674 39
43.7208 26.5563 -0.0533863 29
43.9885 26.5567 0.0246691 32
43.7567 26.5469 0.120765 34
43.9832 26.5943 0.200933 13
43.8157 26.49 0.294363 32
44.021 26.6376 0.375985 12
43.8469 26.4672 0.468904 34
43.9454 26.5588 0.554184 30
43.8347 26.5415 0.644928 32
43.7942 26.5056 0.73354 31
43.7937 26.5565 0.821484 33
44.0494 26.4976 0.903456 31
43.9228 26.657 0.995075 30
43.978 26.4941 1.08081 30
43.9139 26.4952 1.1786 32
43.7948 26.4419 1.25895 24
43.2453 26.1624 1.35116 10
43.4925 26.3052 1.43629 9
43.7208 26.4876 1.52311 10
42.3579 25.4313 1.60928 11
42.1833 25.5615 1.69702 31
42.2128 25.3808 1.77851 32
42.0812 25.5072 1.86544 26
42.0413 25.3336 1.94683 23
43.9475 26.5848 2.04962 14
41.8738 25.2785 2.11383 14
41.7959 25.2791 2.19744 12
42.3771 25.4304 2.28565 29
42.1251 25.5124 2.37096 29
41.8684 25.1556 2.44581 31
41.847 25.3487 2.53375 25
41.795 25.2271 2.69764 31
41.7957 25.2466 2.8653 29
41.6304 25.1823 3.02799 30
43.9735 26.6476 3.28398 43
41.0075 24.5708 3.73706 33
44.0618 26.561 4.78419 37
40.9093 24.5883 5.82559 33
41.6183 25.0354 7.15978 32
44.1688 26.6549 9.70653 31
18.7578 10.8031 5.87189 10
44.3904 26.6576 15.3035 18
4.86538 2.35724 -0.396202 8
5.9822 3.05913 -0.377126 8
7.24217 3.81622 -0.408766 8
8.46347 4.5954 -0.423701 6
9.72703 5.35025 -0.440574 6
11.1301 6.20361 -0.482738 5
12.5466 7.08382 -0.520452 5
13.9962 7.98026 -0.555991 5
15.5151 8.89941 -0.605084 4
16.8377 9.75906 -0.651303 5
17.7823 10.2832 -0.682843 4
18.9911 11.0565 -0.72391 4
20.0352 11.6985 -0.741081 4
20.9407 12.2922 -0.77504 4
22.049 12.9843 -0.824394 5
23.0727 13.5402 -0.851772 6
23.8456 14.039 -0.846856 8
23.827 14.0666 -0.752217 13
24.7973 14.6731 -0.752498 6
28.9998 17.1764 -1.06749 9
31.6178 18.8174 -1.19821 9
33.9101 20.3332 -1.28015 6
34.5088 20.6637 -1.19493 45
34.4414 20.5636 -1.05043 36
34.3928 20.5175 -0.90909 14
34.3657 20.597 -0.771973 25
34.319 20.536 -0.631254 43
34.3043 20.4607 -0.492631 59
34.2837 20.432 -0.354743 47
35.8873 21.3772 -0.379989 38
34.26 20.5213 -0.218345 50
35.9958 21.452 -0.243239 40
34.291 20.4923 -0.0832036 61
36.038 21.5097 -0.102484 34
34.3007 20.4402 0.0530885 42
36.2059 21.6298 0.0329971 82
34.2742 20.4078 0.190556 27
34.2866 20.3834 0.265012 25
34.249 20.4961 0.327156 20
44.0979 26.4173 0.0211798 10
44.0925 26.517 0.109247 30
44.0885 26.4523 0.197658 19
44.0909 26.4533 0.285699 9
44.0668 26.4588 0.374535 30
44.0962 26.4248 0.46172 14
44.097 26.4559 0.549844 21
44.093 26.4944 0.638167 32
44.1205 26.5006 0.725649 22
44.1553 26.5423 0.813233 30
44.2652 26.4232 0.898445 24
44.2282 26.6387 0.988948 29
44.2791 26.4723 1.07517 22
44.2188 26.4866 1.17348 30
44.2827 26.5463 1.25253 24
43.4853 26.1068 1.34728 11
43.6522 26.199 1.43313 9
44.1163 26.4946 1.51895 21
44.3957 26.4793 1.60428 10
44.2932 26.6654 1.69624 10
42.4205 25.3103 1.77614 36
42.323 25.4684 1.86365 30
44.3407 26.5582 1.9599 29
44.2614 26.5713 2.0488 29
44.1978 26.511 2.13611 31
44.1495 26.5016 2.22414 10
41.331 24.5926 2.26567 12
42.2437 25.3875 2.36876 29
42.2672 25.2037 2.44912 35
42.1521 25.35 2.53593 33
41.2654 24.7053 2.67918 30
41.8157 25.0431 2.86006 33
41.701 25.0303 3.02473 38
44.2574 26.626 3.28869 11
42.0181 24.9964 3.78256 12
44.3752 26.5568 4.79787 21
42.0948 25.133 5.93852 20
41.0664 24.4734 7.06827 25
44.5733 26.6958 9.76179 13
18.783 10.7339 5.86772 10
44.8088 26.7157 15.4045 40
4.87307 2.34468 -0.39644 6
5.99273 3.04201 -0.37745 9
7.25533 3.79469 -0.409173 8
8.47363 4.56963 -0.422971 5
9.74553 5.32004 -0.441146 6
11.1515 6.16849 -0.483402 5
12.5669 7.04118 -0.52041 5
14.0197 7.93254 -0.556122 5
15.5444 8.8515 -0.605991 4
16.8716 9.704 -0.652346 5
17.8137 10.2223 -0.683354 4
19.021 10.9887 -0.723969 4
20.0673 11.6271 -0.741262 4
20.9834 12.2228 -0.776355 4
22.0769 12.9106 -0.824139 5
23.124 13.4659 -0.853711 6
23.9496 13.9932 -0.85443 5
23.9437 14.0288 -0.760912 9
24.8474 14.6011 -0.754342 6
29.1062 17.1074 -1.0739 10
31.6789 18.708 -1.19983 9
33.985 20.2211 -1.2827 8
34.5904 20.569 -1.19837 37
35.0957 20.8037 -1.09991 29
35.5666 21.0751 -0.996163 23
34.416 20.4677 -0.772626 23
35.9106 21.3686 -0.738315 36
35.8917 21.2716 -0.592875 31
35.9606 21.2885 -0.454066 37
35.9962 21.285 -0.384419 37
35.9616 21.4059 -0.312615 32
36.0746 21.3326 -0.245778 38
36.0294 21.4222 -0.172937 31
36.181 21.4293 -0.108226 32
36.1965 21.4386 -0.0371479 31
36.3195 21.5305 0.0289017 36
36.4302 21.5558 0.0963588 40
44.3169 26.3452 -0.154435 24
34.3075 20.3724 0.325472 35
44.5994 26.5166 0.00276804 36
44.107 26.3501 0.109127 12
44.2103 26.3203 0.193802 34
44.2212 26.3265 0.281631 33
44.2953 26.392 0.367622 35
44.2353 26.293 0.457549 37
44.1716 26.3053 0.547472 39
44.1639 26.3311 0.635826 38
44.217 26.3528 0.72271 21
44.319 26.4666 0.809141 32
44.5921 26.4151 0.891466 21
44.5383 26.6212 0.982727 26
44.5933 26.4565 1.06932 29
44.5375 26.4636 1.168 30
44.5838 26.5331 1.24782 29
43.8065 26.0995 1.3428 11
43.8884 26.1389 1.42955 9
44.4549 26.526 1.51569 12
42.1282 24.8963 1.60432 37
42.0153 25.0625 1.69126 31
44.628 26.4538 1.77948 26
44.4877 26.5967 1.87129 17
44.6335 26.5395 1.95861 14
44.563 26.5482 2.04784 30
41.2255 24.4907 2.09929 10
41.2461 24.5511 2.1825 20
41.4465 24.4702 2.26347 25
41.2917 24.6068 2.34807 20
42.4575 25.1222 2.44837 33
42.462 25.3424 2.53795 33
41.1337 24.4322 2.671 38
41.698 24.7953 2.85185 30
41.1785 24.5155 3.00154 14
44.4055 26.5091 3.28793 8
41.0628 24.2218 3.7258 29
41.7097 24.7365 4.59562 34
42.1951 25.0074 5.93772 26
41.1645 24.3703 7.06947 25
44.8142 26.634 9.78639 43
18.7911 10.6546 5.85956 10
44.9686 26.6034 15.4224 42
4.88111 2.33144 -0.39669 8
6.00321 3.02485 -0.377774 8
7.26842 3.77312 -0.40958 6
8.49356 4.54634 -0.424629 5
9.76393 5.28977 -0.441718 6
11.1729 6.13331 -0.484067 5
12.5828 6.99591 -0.519567 5
14.0471 7.88733 -0.556976 5
15.5624 8.79324 -0.604956 4
16.901 9.64623 -0.652769 5
17.8449 10.1613 -0.683864 4
19.0421 10.9157 -0.722899 4
20.1119 11.5634 -0.743052 4
21.0258 12.1533 -0.77767 5
22.1259 12.8398 -0.826028 5
23.1537 13.3786 -0.853227 6
24.1088 13.9805 -0.868085 6
24.103 14.0162 -0.774113 9
24.9023 14.5207 -0.756344 8
29.1826 17.0198 -1.07741 9
31.7438 18.6011 -1.20185 8
34.0594 20.1087 -1.28526 9
35.4966 20.9603 -1.27166 14
35.5688 20.9282 -1.13461 9
35.5246 20.8848 -0.989584 17
34.3976 20.2967 -0.768311 9
35.9806 21.2443 -0.740324 34
35.987 21.1629 -0.596551 37
36.0474 21.1744 -0.457142 39
36.0867 21.1647 -0.387586 37
36.0487 21.2919 -0.315642 38
36.153 21.213 -0.248319 37
36.1295 21.3157 -0.176585 37
36.2512 21.3041 -0.110327 36
36.3095 21.3393 -0.0413189 36
36.4285 21.4281 0.0249979 32
36.5436 21.4556 0.0923294 29
35.8262 20.9964 0.202078 33
44.4829 26.4045 -0.0813613 36
44.3195 26.1397 0.0140312 38
44.2242 26.2154 0.105364 34
44.3189 26.18 0.190376 39
44.3812 26.2172 0.276605 29
44.3144 26.197 0.366937 55
44.2412 26.0905 0.457079 26
44.293 26.1729 0.543858 38
44.2768 26.1936 0.632476 35
44.3385 26.2203 0.719215 32
44.4068 26.313 0.806369 29
44.9152 26.4024 0.884531 17
44.853 26.6045 0.97641 26
44.9122 26.4414 1.06339 18
44.8607 26.4514 1.16253 32
44.8985 26.5158 1.24286 17
44.0513 26.0436 1.33884 9
44.3129 26.1915 1.42495 8
44.8336 26.5483 1.51189 10
45.0592 26.4652 1.59794 21
42.2777 25.026 1.6887 20
42.3178 24.8535 1.7699 37
42.2477 25.0267 1.85696 34
44.9611 26.5297 1.95737 12
44.9205 26.557 2.04734 11
42.0379 24.7907 2.10464 13
42.0241 24.8308 2.18889 34
42.2214 24.7442 2.27115 36
42.0696 24.8869 2.3573 29
42.2666 24.81 2.44033 17
42.6143 25.2369 2.53658 11
41.1974 24.2794 2.66781 10
41.2072 24.3039 2.83221 34
41.2041 24.3392 2.99689 32
41.213 24.3632 3.16158 35
42.0976 24.6537 3.77229 13
45.0208 26.5431 4.82593 30
42.2994 24.8742 5.93679 33
41.9768 24.6692 7.16493 35
45.0932 26.5939 9.81803 40
18.799 10.5753 5.85141 9
45.2853 26.5849 15.4895 40
4.88911 2.31816 -0.39694 6
6.01764 3.0101 -0.379772 9
7.28144 3.7515 -0.409988 8
8.50926 4.52044 -0.425118 5
9.78222 5.25943 -0.44229 6
11.1941 6.09805 -0.484731 5
12.6028 6.95317 -0.519525 5
14.066 7.83691 -0.556383 5
15.5929 8.74264 -0.605909 4
16.9047 9.57297 -0.649473 5
17.8759 10.1001 -0.684374 4
19.08 10.8529 -0.724082 4
20.1435 11.4917 -0.743232 5
21.0509 12.0733 -0.776907 5
22.1619 12.7611 -0.826413 5
23.183 13.2912 -0.852741 5
24.2425 13.9514 -0.878949 6
24.2241 13.9796 -0.783279 12
24.9399 14.4297 -0.75662 8
29.2844 16.9472 -1.08341 9
31.7572 18.4631 -1.1991 8
33.9885 19.9083 -1.27488 8
35.5182 20.8091 -1.26958 10
35.5603 20.7588 -1.13032 14
35.4903 20.7001 -0.983647 23
34.3443 20.1054 -0.761499 31
36.0886 21.143 -0.744971 32
36.099 21.0641 -0.601334 36
36.1467 21.0676 -0.460997 34
36.1902 21.0604 -0.39164 35
36.1099 21.162 -0.317225 37
36.261 21.111 -0.252488 36
36.2977 21.25 -0.183814 35
36.321 21.1786 -0.112428 17
36.4307 21.2445 -0.0459077 35
35.9122 20.9492 0.0499269 42
35.89 20.8945 0.122102 31
35.9249 20.8904 0.198716 40
44.3351 26.1083 -0.0746341 42
35.9594 20.9193 0.332101 40
44.3411 26.0802 0.101597 41
35.9665 20.9548 0.473763 32
44.2967 25.9604 0.27935 135
35.937 20.9534 0.616653 48
35.849 20.8509 0.689961 100
35.8922 20.9181 0.759663 78
35.9083 20.9525 0.830197 91
44.4597 26.0872 0.715716 37
44.4983 26.1616 0.803514 30
45.2903 26.4186 0.876659 14
35.9084 21.0001 1.11403 31
36.0173 20.9081 1.18223 101
35.9563 20.9045 1.26129 115
35.9379 20.9266 1.32559 69
35.8766 20.9227 1.39727 76
35.902 20.9297 1.46782 66
45.0973 26.4986 1.50844 17
36.0166 20.8558 1.60743 39
45.2295 26.6093 1.68816 26
45.2492 26.4111 1.77494 31
45.186 26.6032 1.86804 25
45.2678 26.5051 1.95594 21
45.2186 26.5275 2.04628 24
42.4199 24.8253 2.10516 12
42.1877 24.7343 2.1872 35
45.3812 26.4354 2.31426 11
45.2564 26.612 2.40748 24
45.2709 26.4105 2.49303 14
42.7621 25.128 2.53511 8
44.8988 26.3115 2.75618 9
41.2575 24.1432 2.82857 23
42.1623 24.725 3.02338 14
41.6403 24.4294 3.17176 29
42.1663 24.5002 3.76871 5
45.3359 26.5231 4.83907 29
42.6425 24.8839 5.96066 26
42.1908 24.603 7.17944 34
45.4064 26.5725 9.85593 37
18.8022 10.4936 5.84226 8
45.6065 26.567 15.5579 41
4.89318 2.30251 -0.39508 8
6.02046 2.98711 -0.376766 8
7.29026 3.72737 -0.409016 8
8.52071 4.49198 -0.424438 5
9.79201 5.22399 -0.440832 6
11.2152 6.06271 -0.485396 5
12.6269 6.91291 -0.520282 5
14.0889 7.78899 -0.556512 5
15.6147 8.68685 -0.605536 4
16.9396 9.51491 -0.650566 5
17.9109 10.0414 -0.685477 4
19.1176 10.79 -0.725266 4
20.1791 11.4226 -0.743949 5
21.0864 11.9949 -0.777248 5
22.1849 12.6746 -0.825289 4
23.2291 13.2139 -0.854193 5
24.3636 13.9139 -0.888423 5
24.3605 13.9458 -0.793882 14
24.9772 14.3386 -0.756894 9
29.3946 16.8793 -1.09025 9
31.7742 18.3278 -1.19673 8
34.0183 19.7619 -1.27335 8
35.4964 20.6324 -1.26385 14
35.5596 20.5948 -1.12671 11
35.4165 20.4929 -0.974739 28
34.3234 19.9269 -0.756957 36
36.1492 21.013 -0.746394 30
36.2494 20.9879 -0.608608 35
36.2499 20.963 -0.465113 34
36.5037 21.0808 -0.407958 34
36.2428 21.0668 -0.322782 36
36.2442 20.9344 -0.249911 30
36.3629 21.1219 -0.185684 33
45.6611 26.5832 -0.579712 24
36.0283 20.8369 -0.0253046 46
36.1008 20.8967 0.0422968 12
36.0828 20.8444 0.114519 29
36.0662 20.8095 0.193553 29
36.0014 20.9032 0.2596 32
36.0665 20.8179 0.328506 20
36.0297 20.9034 0.40066 33
36.1338 20.8892 0.46827 51
36.0197 20.8211 0.5431 31
36.0356 20.8471 0.613593 38
36.0461 20.8036 0.684215 34
36.0122 20.8247 0.756159 34
36.0148 20.8427 0.82708 30
36.0203 20.8458 0.897903 39
35.9989 20.8743 0.969487 42
36.0854 20.7506 1.03783 43
36.0029 20.8913 1.1114 45
36.0728 20.7759 1.18017 58
36.0548 20.798 1.25871 40
36.0365 20.8202 1.32305 30
36.0089 20.8284 1.39445 38
36.0006 20.8234 1.46539 58
35.939 20.8196 1.53689 127
36.059 20.716 1.60518 92
45.5452 26.5885 1.68541 17
45.5776 26.3971 1.77266 32
45.4716 26.5647 1.86606 33
45.6007 26.494 1.95466 17
42.3737 24.612 2.01738 13
42.4977 24.6758 2.10235 17
42.2437 24.5728 2.18411 10
42.2856 24.3929 2.26415 13
42.1866 24.567 2.35095 9
45.5821 26.3863 2.49427 31
45.4965 26.566 2.58805 33
45.5662 26.491 2.76746 37
45.2699 26.345 2.94032 11
41.549 24.1638 2.99744 25
nan nan nan nan
41.955 24.1813 3.75079 23
45.6642 26.509 4.8531 24
42.9648 24.8787 5.9823 29
41.3968 23.9372 7.05868 30
45.7581 26.5719 9.90085 35
18.8347 10.4293 5.8401 9
45.9365 26.5522 15.6288 40
4.90187 2.28786 -0.395355 8
6.03477 2.97228 -0.378764 8
7.30724 3.70813 -0.410803 9
8.53623 4.46598 -0.424926 5
9.81428 5.19606 -0.442419 6
11.2319 6.02479 -0.485165 5
12.6551 6.87509 -0.521841 5
14.1116 7.74101 -0.556641 5
15.6435 8.62845 -0.605921 5
16.9427 9.44173 -0.647264 5
17.9414 9.98009 -0.685986 4
19.1465 10.7219 -0.725321 4
20.2101 11.3507 -0.744128 5
21.1023 11.9097 -0.775442 4
22.2289 12.6009 -0.826675 5
23.2536 13.1239 -0.853219 5
24.4632 13.8631 -0.895566 5
24.4987 13.9179 -0.804871 14
24.8986 14.1787 -0.745499 9
29.5004 16.8083 -1.09669 9
31.7349 18.1596 -1.18918 6
33.9327 19.555 -1.2618 6
35.448 20.4407 -1.25594 17
35.4552 20.37 -1.11478 11
35.522 20.3933 -0.979622 25
34.2726 19.7393 -0.750426 13
36.2136 20.8853 -0.74811 31
36.3051 20.8548 -0.609809 36
36.5333 20.9647 -0.480118 32
41.6377 23.9265 -0.704875 8
36.3074 20.9389 -0.324608 31
45.8723 26.4559 -0.77005 21
36.4277 20.9935 -0.187552 20
45.9727 26.5572 -0.59363 24
36.191 20.7683 -0.0319401 43
36.2551 20.8227 0.0362358 38
36.2499 20.7781 0.108056 33
36.2534 20.7386 0.186533 35
36.1814 20.845 0.253012 23
36.2594 20.7669 0.32164 30
36.1454 20.8068 0.396822 28
46.0057 26.563 0.133869 34
36.191 20.7576 0.537656 34
36.2543 20.8115 0.606938 59
36.2174 20.74 0.67917 33
36.213 20.7703 0.750537 37
36.1819 20.7767 0.822541 38
36.1616 20.7645 0.894116 25
36.1445 20.7957 0.965757 38
36.2265 20.6689 1.03431 53
36.1271 20.8 1.1083 36
36.1967 20.6841 1.17717 43
36.1832 20.7089 1.25578 68
36.1599 20.72 1.32019 42
36.1373 20.7396 1.39174 38
36.1161 20.7269 1.46286 64
36.119 20.7616 1.53423 41
nan nan nan nan
45.8699 26.571 1.68263 21
45.9625 26.4142 1.7705 10
42.4558 24.5639 1.84857 14
45.9734 26.483 1.95325 17
42.1323 24.2743 2.01182 23
42.2866 24.3556 2.09645 36
42.3249 24.4265 2.18135 30
46.0432 26.4068 2.31549 12
45.8755 26.5607 2.40899 31
45.9713 26.4058 2.49694 31
45.8297 26.5538 2.59017 36
45.8995 26.4781 2.77055 34
43.5504 25.1194 2.88491 29
41.6589 24.0378 2.99564 35
41.7412 24.1051 3.16387 30
43.5771 24.9414 3.8268 20
42.1288 24.2034 4.58999 29
43.0173 24.7025 5.97543 31
41.4547 23.7814 7.0526 33
46.0509 26.5341 9.93476 41
18.8416 10.3502 5.83195 10
46.2336 26.5157 15.6894 40
4.9101 2.27384 -0.395617 6
6.04956 2.95652 -0.380779 6
7.32003 3.68638 -0.41121 9
8.55165 4.43993 -0.425415 6
9.83224 5.16554 -0.442991 6
11.257 5.99182 -0.486725 5
12.6704 6.82964 -0.520996 5
14.147 7.70051 -0.558944 5
15.6706 8.57251 -0.606257 4
16.9642 9.37596 -0.646493 5
17.9718 9.91866 -0.686494 4
19.1751 10.6538 -0.725375 4
20.2452 11.2814 -0.744843 4
21.0986 11.8085 -0.771097 4
22.2726 12.527 -0.828062 4
23.2819 13.0363 -0.852728 5
24.4899 13.7687 -0.894756 9
24.6291 13.8734 -0.814673 20
24.8191 14.0195 -0.734086 11
29.5845 16.7241 -1.10104 9
31.6605 17.9716 -1.17843 6
33.9353 19.3939 -1.25797 6
34.1361 19.5046 -1.14106 167
34.1587 19.4458 -1.00685 195
34.1905 19.4489 -0.874595 199
34.2715 19.5744 -0.747414 8
36.2861 20.7626 -0.750412 28
36.412 20.752 -0.614331 25
36.5588 20.8131 -0.479585 6
44.0524 25.1395 -0.843102 9
45.9388 26.4429 -0.864146 10
46.1625 26.4155 -0.783714 32
45.9338 26.4284 -0.681789 26
46.3149 26.547 -0.609087 26
46.0256 26.3767 -0.503546 29
46.2309 26.5179 -0.422101 29
36.3394 20.6653 0.104996 37
46.3402 26.4643 -0.234142 30
36.2962 20.7391 0.249048 17
36.3747 20.6692 0.317702 12
36.3167 20.7427 0.390967 49
46.3567 26.5578 0.122164 26
nan nan nan nan
46.2661 26.5249 0.308093 32
36.3197 20.6349 0.676032 43
36.3621 20.6845 0.746232 23
36.3181 20.6834 0.818694 39
36.3114 20.6876 0.890133 98
36.2858 20.7138 0.962102 98
46.281 26.3727 0.855262 31
46.1462 26.5365 0.950375 31
36.3075 20.5842 1.17434 23
36.3242 20.6268 1.25269 99
36.3132 20.6368 1.31704 80
36.3596 20.697 1.38822 114
36.1839 20.602 1.46059 115
36.3292 20.7203 1.53145 110
42.5218 24.1563 1.59085 12
42.4162 24.3269 1.67772 11
46.253 26.3735 1.76807 26
46.1256 26.5309 1.8624 32
46.2729 26.4371 1.9515 30
46.288 26.509 2.04405 10
42.255 24.1434 2.09252 23
42.2806 24.2065 2.17701 17
46.3554 26.3782 2.31577 18
46.1963 26.5387 2.40988 24
43.913 24.994 2.45385 12
46.1634 26.5396 2.59226 24
43.719 24.9695 2.71075 24
43.6207 24.961 2.88163 37
41.7728 23.9139 2.99398 25
41.9543 24.0392 3.16599 29
43.0467 24.4336 3.79254 32
42.2217 24.0554 4.58748 31
43.0088 24.4911 5.96238 26
41.2933 23.4977 7.01732 32
46.378 26.5145 9.97492 39
18.8566 10.2761 5.8258 9
46.4309 26.4192 15.7188 38
4.91751 2.26113 -0.395855 8
6.05973 2.93916 -0.381104 8
7.33274 3.66458 -0.411618 8
8.57117 4.4163 -0.427075 6
9.84587 5.13249 -0.442546 8
11.2693 5.9513 -0.485597 5
12.6898 6.78665 -0.520952 5
14.1694 7.65236 -0.559073 5
15.6946 8.52159 -0.606498 4
16.9796 9.31043 -0.645048 5
18.0061 9.85964 -0.687598 4
19.2035 10.5855 -0.725428 4
20.2801 11.2119 -0.745557 5
21.1224 11.7285 -0.770324 4
22.316 12.4529 -0.829448 5
23.3014 12.9437 -0.851263 5
24.3872 13.5991 -0.879888 6
24.7565 13.843 -0.824706 17
24.8549 13.929 -0.734341 12
29.6942 16.6546 -1.1079 9
31.6109 17.7995 -1.17006 6
33.9682 19.2589 -1.25707 6
34.3157 19.4546 -1.15268 52
34.3597 19.4081 -1.01976 20
35.4736 20.0418 -0.96964 12
36.2948 20.6027 -0.891148 32
36.3583 20.6396 -0.752715 34
36.4797 20.626 -0.616362 20
36.6225 20.6841 -0.481383 8
44.5024 25.2201 -0.867219 8
46.2118 26.392 -0.877249 18
46.5047 26.4036 -0.800208 30
46.2585 26.4078 -0.696856 22
46.4805 26.4317 -0.615716 34
46.3201 26.3378 -0.51623 26
46.5086 26.4683 -0.433593 35
46.3795 26.3397 -0.335815 30
46.5353 26.3873 -0.241493 35
46.2916 26.4145 -0.149743 32
46.5402 26.4105 -0.0673865 26
46.306 26.4113 0.0325683 31
46.5051 26.4323 0.117304 24
46.3478 26.3403 0.214038 29
46.5656 26.4878 0.298955 31
46.4313 26.3456 0.394415 31
46.4887 26.4102 0.484528 29
46.4724 26.4321 0.576672 31
nan nan nan nan
nan nan nan nan
46.615 26.3551 0.848016 24
46.4629 26.5103 0.943909 30
46.5215 26.3424 1.03315 30
46.4092 26.3189 1.13558 41
46.5176 26.4027 1.21701 24
nan nan nan nan
nan nan nan nan
nan nan nan nan
42.6058 24.0116 1.58815 20
46.5378 26.5403 1.677 14
46.5697 26.3461 1.76567 31
46.5028 26.5401 1.86075 23
46.5982 26.4252 1.95025 30
46.5056 26.424 2.04217 29
46.423 26.3755 2.13293 30
46.4382 26.4368 2.22563 10
46.6939 26.3627 2.3164 30
43.7973 24.9268 2.36544 14
43.9178 24.7968 2.44952 32
41.1448 23.3967 2.48347 34
46.6108 26.4609 2.77744 11
43.6946 24.8049 2.87848 31
41.1048 23.3337 2.96666 30
41.3561 23.4985 3.13817 12
43.1967 24.3245 3.79311 37
42.3358 23.9294 4.58695 23
43.9474 24.8392 6.04716 31
41.255 23.2877 6.99868 29
43.2466 24.4839 9.38056 31
19.0243 10.2897 5.85557 3
46.6823 26.353 15.765 39
4.92096 2.24611 -0.393981 8
6.06934 2.92264 -0.381413 8
7.34537 3.64274 -0.412025 9
8.57803 4.38522 -0.425222 5
9.86362 5.10187 -0.443118 10
11.2941 5.91817 -0.487158 5
12.7047 6.74113 -0.520105 5
14.1916 7.60414 -0.559201 5
15.7055 8.46315 -0.604744 4
17.0103 9.25766 -0.646033 5
18.036 9.79802 -0.688105 4
19.2359 10.5197 -0.726045 4
20.3103 11.1398 -0.745733 4
21.0879 11.6195 -0.762713 5
22.3506 12.3737 -0.829829 5
23.3204 12.8511 -0.849794 5
24.4301 13.5152 -0.880939 6
24.9012 13.8219 -0.836555 10
24.942 13.8684 -0.73979 20
29.7822 16.572 -1.11268 8
31.595 17.6479 -1.16486 6
34.0016 19.1322 -1.25643 8
nan nan nan nan
35.515 19.9215 -1.10938 11
35.4914 19.8916 -0.967928 28
36.3628 20.4858 -0.893332 30
36.4084 20.5038 -0.753545 36
36.5168 20.4823 -0.616452 20
36.7289 20.5799 -0.48578 8
41.726 23.4274 -0.703773 8
46.4889 26.3526 -0.890713 29
46.6916 26.2998 -0.808314 37
46.5793 26.3828 -0.711729 29
46.9573 26.4955 -0.637935 21
46.6106 26.2947 -0.528733 29
46.8255 26.4397 -0.4469 32
46.5922 26.2514 -0.344096 30
46.8606 26.3736 -0.254246 34
46.595 26.3898 -0.161179 32
46.697 26.2891 -0.0728115 36
46.6313 26.3886 0.021234 29
46.8394 26.4136 0.106131 10
46.6602 26.3096 0.204053 29
46.7616 26.3889 0.292889 24
46.6961 26.287 0.386639 24
46.6279 26.2895 0.480375 36
46.6417 26.3394 0.571949 28
46.6437 26.3295 0.66366 31
46.6266 26.3722 0.756076 31
46.7154 26.2011 0.844897 31
46.6373 26.3994 0.939656 35
46.6911 26.2285 1.02912 31
46.7607 26.3104 1.12964 29
46.8863 26.4143 1.21147 21
46.0112 25.9614 1.31095 11
46.3324 26.136 1.3995 8
46.7171 26.4002 1.48975 18
42.6633 23.8517 1.58549 11
46.8421 26.5043 1.67412 29
46.8955 26.3217 1.76326 30
46.8287 26.5169 1.85883 31
46.9281 26.414 1.94899 29
46.8698 26.4438 2.04189 29
46.7659 26.3621 2.13261 21
46.6773 26.3635 2.22451 26
47.0328 26.3452 2.317 24
46.8521 26.4963 2.41179 24
41.312 23.101 2.39701 10
41.2263 23.2568 2.48085 34
44.005 24.7663 2.70868 34
41.3007 23.2239 2.80471 28
41.251 23.2315 2.96617 28
41.2346 23.2402 3.12808 33
43.2554 24.1626 3.78905 20
42.4626 23.82 4.58777 37
44.3967 24.9082 6.08206 24
41.3276 23.1426 6.99492 25
42.5492 23.8856 9.23451 39
19.0986 10.249 5.86338 3
47.0093 26.3287 15.8346 39
4.92475 2.23041 -0.392118 8
6.07889 2.90609 -0.381722 8
7.35793 3.62085 -0.412433 9
8.59317 4.35903 -0.42571 5
9.88125 5.07118 -0.44369 6
11.3146 5.88249 -0.487823 5
12.7238 6.69806 -0.520059 5
14.2265 7.56327 -0.561506 4
15.7176 8.40218 -0.603036 5
17.0322 9.19983 -0.645776 5
18.07 9.73878 -0.689208 5
19.2723 10.4563 -0.727227 4
20.3403 11.0677 -0.745908 4
21.1219 11.5506 -0.76343 6
22.3849 12.2944 -0.830208 4
23.3521 12.766 -0.849782 5
24.4597 13.4236 -0.880583 6
25.0287 13.7901 -0.846609 10
25.1023 13.8498 -0.752611 9
29.844 16.4742 -1.11497 8
31.6044 17.5115 -1.16205 6
34.0301 19.003 -1.25542 9
35.4572 19.8021 -1.24198 13
35.489 19.7465 -1.10398 13
35.4912 19.7317 -0.964889 23
36.4477 20.3786 -0.896765 23
36.4579 20.3679 -0.754372 35
36.5576 20.3411 -0.616814 23
nan nan nan nan
37.1509 20.6143 -0.436044 8
46.6841 26.2641 -0.89959 13
41.9621 23.3828 -0.550879 30
46.7965 26.2961 -0.721225 19
37.1722 20.6746 -0.147128 23
46.9144 26.2573 -0.541886 30
42.0071 23.4638 -0.224177 23
46.8743 26.2016 -0.355441 29
42.0673 23.4121 -0.0533599 20
46.8164 26.316 -0.169356 35
47.0052 26.2538 -0.084 29
46.7447 26.2419 0.0174897 29
42.1564 23.5187 0.264905 10
46.808 26.1827 0.199291 26
47.313 26.4928 0.276195 37
46.8656 26.1723 0.381497 21
47.0793 26.3366 0.468114 24
47.0105 26.35 0.562421 11
46.7959 26.2052 0.659371 18
46.8483 26.2878 0.750538 31
47.1453 26.2347 0.835902 26
47.1322 26.472 0.930342 29
47.1819 26.2972 1.02066 23
47.117 26.3021 1.12361 30
47.2126 26.3884 1.20621 24
46.4137 25.9939 1.30573 11
46.6533 26.1097 1.39524 6
42.6501 23.8543 1.50208 13
47.3655 26.3356 1.5748 18
47.1858 26.489 1.67123 26
47.3042 26.3425 1.76102 22
47.1724 26.5017 1.85695 24
47.2761 26.4003 1.94763 29
47.2045 26.4336 2.04113 26
47.118 26.3516 2.13234 26
47.0163 26.3461 2.22461 21
47.3679 26.3232 2.3175 26
47.1697 26.466 2.41252 24
47.1957 26.2669 2.501 36
46.985 26.3802 2.59461 26
41.4928 23.1384 2.64255 17
41.3381 23.0586 2.80085 37
41.3015 23.0738 2.96257 28
41.3286 23.1075 3.12594 33
45.22 25.0843 3.88126 35
42.0429 23.3885 4.54951 13
44.6869 24.873 6.09999 33
42.1894 23.4476 7.09578 14
42.6326 23.741 9.23181 39
19.1344 10.1863 5.86222 3
47.3493 26.3096 15.908 39
4.93632 2.21925 -0.39448 6
6.08839 2.8895 -0.38203 9
7.37041 3.59892 -0.41284 8
8.61665 4.33764 -0.428542 5
9.90727 5.0453 -0.446295 8
11.3307 5.84429 -0.48759 5
12.7513 6.65983 -0.521618 5
14.2355 7.50753 -0.559457 5
15.7467 8.35104 -0.603986 5
17.0582 9.14442 -0.646139 5
18.0951 9.67451 -0.689119 5
19.3086 10.3927 -0.728409 4
20.383 11.0029 -0.747698 4
21.1557 11.4816 -0.764147 8
22.406 12.2076 -0.829073 4
23.3661 12.6709 -0.84782 4
24.4673 13.3198 -0.877878 6
25.1477 13.7526 -0.85577 8
25.1979 13.793 -0.758943 9
29.9792 16.418 -1.12435 6
31.5872 17.3604 -1.15684 6
34.0495 18.8688 -1.25363 9
35.4393 19.6325 -1.23692 12
35.4796 19.5818 -1.09996 23
35.486 19.5695 -0.96151 13
36.528 20.2687 -0.899888 23
36.5807 20.274 -0.760215 34
36.7324 20.2764 -0.625789 20
36.9409 20.37 -0.494588 11
36.9402 20.3281 -0.42201 10
41.9234 23.3421 -0.630825 14
37.1781 20.4795 -0.290943 14
42.0506 23.3762 -0.472718 14
37.1224 20.4794 -0.143397 28
42.0632 23.2878 -0.307891 25
37.3292 20.6134 -0.00819612 25
42.1032 23.2815 -0.144865 23
42.1312 23.2591 -0.0552946 31
47.1463 26.3029 -0.18188 34
42.1931 23.3127 0.0988096 33
47.1789 26.2779 0.002213 34
42.2077 23.358 0.263268 33
47.3814 26.297 0.180951 34
42.2474 23.3989 0.427173 35
47.2349 26.1702 0.370776 38
47.0579 26.1117 0.468046 33
46.9803 26.1308 0.562381 60
47.0956 26.1641 0.65185 51
47.2655 26.3135 0.741112 38
42.3704 23.3239 0.919647 8
47.4761 26.4548 0.923373 21
47.53 26.2814 1.01412 29
47.4434 26.2745 1.1179 29
40.6861 22.4715 1.26793 13
40.7374 22.5644 1.34762 14
42.7232 23.6653 1.41542 6
42.7114 23.6967 1.49946 14
47.6922 26.3067 1.57138 26
47.5386 26.4766 1.66831 26
47.5873 26.2893 1.75844 31
47.4209 26.43 1.85463 32
47.6203 26.382 1.94621 30
47.5309 26.4166 2.04027 26
47.4532 26.3291 2.13186 31
47.373 26.3365 2.22489 21
42.979 23.6333 2.25069 17
42.9049 23.8226 2.33824 20
42.9956 23.6806 2.41961 30
42.9077 23.8428 2.50662 23
41.6041 23.0241 2.64091 32
41.6227 23.0341 2.80404 12
47.0024 26.1329 3.14221 10
41.383 22.9521 3.12237 10
45.2943 24.9228 3.87775 38
nan nan nan nan
45.2981 25.0177 6.15055 21
42.3188 23.3311 7.0994 12
42.9046 23.7033 9.26355 34
19.1744 10.1258 5.86204 3
47.6771 26.2812 15.9775 37
4.94392 2.20578 -0.39473 9
6.09833 2.87201 -0.382355 8
7.387 3.57932 -0.414629 8
8.64006 4.31613 -0.431376 6
9.92897 5.01688 -0.447885 10
11.3509 5.80848 -0.488254 5
12.7786 6.62149 -0.523177 5
14.2615 7.46157 -0.56031 4
15.7756 8.29979 -0.604937 5
17.0769 9.08124 -0.64531 5
18.12 9.61018 -0.689029 5
19.3273 10.3192 -0.727327 4
20.4125 10.9305 -0.747872 4
21.2041 11.4164 -0.766493 9
22.4397 12.1282 -0.829449 4
23.3927 12.5833 -0.847317 5
24.4485 13.2013 -0.872349 8
25.3037 13.7299 -0.868635 8
25.3108 13.7456 -0.767016 9
29.9928 16.2926 -1.12204 5
31.6431 17.2514 -1.15842 6
34.1107 18.7512 -1.25539 9
35.4164 19.4608 -1.23148 12
35.4346 19.3979 -1.09315 9
35.4366 19.3831 -0.954817 6
36.6331 20.1645 -0.904692 17
36.7466 20.2041 -0.76902 34
36.8463 20.1764 -0.630883 25
36.9856 20.23 -0.495347 10
36.989 20.1906 -0.423072 14
42.0436 23.2215 -0.635665 12
37.2928 20.3779 -0.295629 17
37.1806 20.4309 -0.218162 30
37.1457 20.3265 -0.143344 29
37.2486 20.3844 -0.0759667 32
37.2311 20.391 -0.00275505 34
42.1972 23.1455 -0.148096 17
nan nan nan nan
42.1724 23.2728 0.0172243 33
42.2916 23.1789 0.0954862 32
42.2326 23.2684 0.17997 32
42.2889 23.2143 0.260602 32
42.2912 23.2153 0.343068 31
42.3026 23.2404 0.425284 31
42.3463 23.2078 0.506507 27
42.3624 23.2545 0.588799 32
42.3743 23.3083 0.671351 25
42.4318 23.3215 0.752713 20
41.9993 23.1243 0.844355 13
41.309 22.5393 0.937374 31
42.39 23.3632 1.00225 30
42.5249 23.2583 1.08167 29
40.8581 22.3587 1.19257 12
40.8644 22.3896 1.26438 25
40.9069 22.4681 1.34424 10
40.815 22.3978 1.42428 13
nan nan nan nan
41.7634 22.7726 1.5795 25
41.7985 23.0165 1.66397 14
41.8263 22.8447 1.74277 25
41.7601 23.0129 1.8272 12
42.9225 23.526 1.91354 20
42.9152 23.5889 1.99836 12
42.9488 23.5786 2.08191 20
42.9755 23.6415 2.16696 13
48.0522 26.2804 2.3186 29
47.8496 26.4242 2.4146 26
47.9754 26.2794 2.50587 31
47.2073 26.0815 2.58944 26
47.1497 25.9526 2.77056 41
47.0633 25.9135 2.95288 31
47.4546 26.1766 3.1509 29
47.328 26.1254 3.33279 37
42.8393 23.347 3.74736 30
44.4026 24.3368 4.69875 20
43.305 23.6957 5.93649 9
41.98 22.9515 7.04133 12
43.4696 23.8285 9.34844 33
48.3452 26.245 12.6389 35
47.9547 26.2227 16.0314 15
4.95148 2.19229 -0.39498 8
6.10821 2.85448 -0.38268 8
7.39995 3.55619 -0.415058 8
8.63805 4.28014 -0.427176 8
9.9463 4.98597 -0.448457 8
11.3753 5.77501 -0.489816 5
12.7886 6.57336 -0.521525 5
14.2873 7.41551 -0.561163 4
15.7958 8.24361 -0.604555 5
17.104 9.02292 -0.645723 5
18.1506 9.54524 -0.689589 5
19.3588 10.253 -0.727942 4
20.4331 10.8532 -0.746965 4
21.2697 11.3607 -0.770927 9
22.4341 12.0267 -0.825284 5
23.4189 12.4956 -0.84681 5
24.4422 13.0905 -0.868222 8
25.4251 13.6868 -0.877895 11
25.4192 13.6952 -0.774664 10
26.4311 14.1683 -0.776272 4
31.6769 17.13 -1.15799 6
34.1714 18.6333 -1.25715 9
35.4057 19.2968 -1.22712 23
35.4367 19.2413 -1.09015 10
35.4386 19.2265 -0.952078 12
36.7118 20.0452 -0.907622 25
36.7994 20.0697 -0.770147 32
36.9469 20.0685 -0.635147 31
37.0166 20.0827 -0.49532 17
36.9196 19.9873 -0.417315 30
37.1924 20.3049 -0.362454 14
37.0138 20.0479 -0.27905 31
37.1601 20.2534 -0.215751 28
37.3427 20.2712 -0.151985 14
37.2671 20.2288 -0.0758007 29
37.1799 20.1964 0.000507712 29
37.3352 20.2417 0.0661045 33
37.352 20.2177 0.145262 32
42.2925 23.1513 0.0129992 30
47.5349 25.9047 -0.102679 34
42.3658 23.154 0.175429 30
41.724 22.7094 0.279805 14
42.4243 23.1006 0.338734 29
41.4281 22.562 0.45115 30
41.1437 22.3476 0.539604 35
41.2476 22.4422 0.617055 20
42.0191 22.9199 0.679087 28
41.893 22.8209 0.763545 30
41.5739 22.6979 0.85175 33
41.4135 22.4134 0.934307 32
40.9845 22.3846 1.02314 28
41.2211 22.3425 1.09821 30
40.9882 22.249 1.18938 28
40.9947 22.2799 1.26129 23
40.972 22.3217 1.34176 25
41.4249 22.5472 1.41849 25
42.6009 23.2517 1.49511 29
42.8173 23.1719 1.57501 29
42.681 23.3243 1.66147 23
42.8234 23.2128 1.74206 23
42.7558 23.3847 1.82839 25
42.8603 23.2995 1.90996 17
42.8489 23.3598 1.99445 17
48.1468 26.2795 2.13082 18
48.0531 26.2912 2.22493 26
42.9637 23.2409 2.24275 20
42.8784 23.4226 2.32971 20
48.3335 26.2638 2.50766 14
47.6861 26.1381 2.59428 31
47.7244 26.0624 2.77927 26
47.3717 25.8749 2.95605 37
45.4832 24.8595 3.08155 26
47.8768 26.2204 3.34636 14
42.9076 23.194 3.74401 35
44.0645 23.9499 4.66629 37
43.1092 23.3933 5.90556 14
41.995 22.7726 7.03012 35
43.5528 23.6807 9.3457 36
48.6602 26.2032 12.6877 34
nan nan nan nan
4.96294 2.18099 -0.397343 9
6.11802 2.83692 -0.383005 8
7.4164 3.53646 -0.416848 8
8.64858 4.25136 -0.426492 6
9.95499 4.95022 -0.446994 8
11.378 5.72947 -0.486889 5
12.807 6.53005 -0.521477 5
14.313 7.36937 -0.562016 4
15.8156 8.18738 -0.604173 5
17.1223 8.95968 -0.644891 4
18.175 9.48078 -0.689497 5
19.3769 10.1795 -0.726857 4
20.462 10.7808 -0.747136 4
21.3352 11.3047 -0.775365 8
22.4888 11.9594 -0.828178 4
23.4492 12.4103 -0.846789 5
24.4746 13.0016 -0.868321 6
25.5726 13.6575 -0.889881 8
25.5537 13.6587 -0.784926 13
26.5195 14.1014 -0.781672 4
31.7364 17.023 -1.15997 6
34.2405 18.5201 -1.25967 9
35.3986 19.1356 -1.22312 23
35.4381 19.0849 -1.08714 23
35.4356 19.0677 -0.949 23
36.6855 19.8672 -0.90303 28
36.9563 19.9935 -0.778377 23
37.0253 19.9481 -0.63802 20
36.9903 19.9038 -0.491889 23
36.9322 19.8307 -0.416341 35
36.9445 20.0011 -0.346994 25
37.0092 19.8813 -0.277368 29
37.2261 20.1249 -0.217857 11
37.5311 20.2099 -0.160206 17
37.2238 20.0393 -0.0727007 30
37.1758 20.0291 0.00158226 25
37.3094 20.0618 0.0679817 32
37.3961 20.0765 0.144015 29
47.4756 25.8508 -0.193111 29
48.6264 26.2963 -0.143592 29
47.9447 26.0684 -0.0244596 12
48.7528 26.4205 0.0417973 21
41.7964 22.5636 0.358635 11
41.5939 22.4696 0.445934 25
41.3263 22.2658 0.534092 31
41.4218 22.3552 0.611973 34
41.6006 22.5002 0.688339 30
41.4171 22.3704 0.773061 29
41.4649 22.452 0.852869 30
41.1062 22.0601 0.938608 32
41.0579 22.2428 1.02063 31
41.2813 22.1927 1.09587 31
41.2144 22.1919 1.18506 29
41.1421 22.1792 1.25802 25
41.1589 22.2431 1.33832 20
41.8707 22.61 1.41371 28
42.4894 22.9999 1.49318 29
40.8308 21.8875 1.5764 6
40.8221 22.0998 1.65859 14
42.9085 23.0695 1.73938 9
40.6659 22.0305 1.8168 11
40.802 21.9701 1.89434 25
40.7747 22.0182 1.97438 8
42.9415 23.1817 2.07461 17
42.9559 23.2467 2.15932 25
43.049 23.0971 2.24011 13
42.973 23.284 2.32722 20
43.0706 23.1465 2.4084 16
43.0066 23.3212 2.49549 29
43.045 23.2557 2.66167 14
43.0771 23.2824 2.8302 17
43.0661 23.3138 2.99846 25
43.1108 23.3571 3.16823 12
43.2641 23.1996 3.75506 10
43.9995 23.7178 4.65313 38
42.4059 22.8133 5.82358 17
