# .PCD v0.7 - Point Cloud Data file format
VERSION 0.7
FIELDS x y z intensity
SIZE 4 4 4 4
TYPE F F F F
COUNT 1 1 1 1
WIDTH 1850
HEIGHT 1
VIEWPOINT 0 0 0 1 0 0 0
POINTS 1850
DATA ascii
nan nan nan nan
nan nan nan nan
-7.55629 21.8459 2.09791 25
-4.06939 11.894 2.07548 11
-4.16712 12.04 2.09938 125
-4.1315 11.9937 2.14282 137
-4.1482 12.0242 2.18759 139
-4.15009 12.0176 2.23184 135
-4.15491 12.0204 2.27626 141
-4.10881 12.0475 2.43086 138
-4.12635 12.021 2.65224 145
-4.13003 12.049 2.99867 140
-8.10986 23.6576 4.6207 33
nan nan nan nan
nan nan nan nan
nan nan nan nan
-0.544448 1.56318 1.22755 44
-0.744131 2.13008 1.18762 4
-0.786521 2.27562 1.2947 3
nan nan nan nan
-0.872191 2.54305 1.42325 3
-0.695842 2.03644 1.59426 3
-0.597624 1.74473 1.68955 3
-0.59529 1.74002 1.71921 5
-0.603139 1.76178 1.73841 1
-0.60993 1.76702 1.75376 1
-0.611353 1.78354 1.76136 1
-0.616383 1.80945 1.76952 1
-0.619749 1.81505 1.77911 3
-0.631866 1.83269 1.78349 1
-0.649505 1.87455 1.78519 4
-0.6467 1.90266 1.78912 4
-0.653374 1.91702 1.79447 4
-0.672463 1.95328 1.7975 4
-0.688533 1.99047 1.80112 4
-0.68861 2.02805 1.80452 4
-0.69845 2.05182 1.80965 3
-0.732954 2.12493 1.81031 3
-0.769519 2.2288 1.80891 3
-4.13669 12.1083 0.9832 3
-4.09545 12.0313 1.03437 4
-4.11737 11.9746 1.08289 4
-4.13331 12.0303 1.12312 4
-0.953765 2.80183 1.80987 6
-4.27289 12.569 1.17681 11
-4.0952 12.051 1.23317 20
nan nan nan nan
nan nan nan nan
-4.4348 12.9255 1.24862 25
-4.08997 12.0052 1.32464 28
-4.45686 13.079 1.28797 30
-4.11615 12.0569 1.36618 29
nan nan nan nan
-4.09072 12.0469 1.41334 25
nan nan nan nan
-4.12421 12.1271 1.45185 10
nan nan nan nan
-4.09153 12.0187 1.50106 31
-4.79993 14.0956 1.44016 30
-4.13042 12.1077 1.54197 13
nan nan nan nan
-7.41631 21.7704 1.25368 5
-7.42909 21.7568 1.29434 25
-7.43896 21.7969 1.33319 14
nan nan nan nan
-4.06387 12.0289 1.67755 8
-4.10492 11.9892 1.70108 6
-7.40535 21.8444 1.49233 11
-7.37753 21.7862 1.53774 8
-7.42312 21.819 1.57351 6
-7.37338 21.6096 1.61764 30
-7.36213 21.5876 1.65775 23
-7.52 21.9991 1.69188 23
nan nan nan nan
-4.11127 12.0166 1.87727 4
-7.62751 22.5291 1.80796 29
nan nan nan nan
-7.61987 22.4267 1.89176 1
-7.62602 22.3667 1.93361 11
-7.42684 21.806 1.97537 28
-7.45754 21.8324 2.01587 31
-4.05608 12.0306 2.03109 5
-7.45896 21.8107 2.09634 9
-4.04388 11.9555 2.07506 23
-4.13219 12.0891 2.09885 126
-4.09929 12.0364 2.14244 136
-4.11428 12.0622 2.18723 138
-4.11622 12.0556 2.23157 134
-4.11683 12.0599 2.27601 139
-4.07475 12.0855 2.43098 138
-4.09564 12.0685 2.65331 142
-4.0944 12.0822 2.99951 135
-8.06886 23.8084 4.63284 32
nan nan nan nan
nan nan nan nan
nan nan nan nan
-0.538949 1.56504 1.22745 3
-0.750418 2.17257 1.17198 4
-0.767726 2.24657 1.30458 3
nan nan nan nan
-0.844378 2.49057 1.4359 3
-0.680823 2.0156 1.59887 3
-0.59121 1.74689 1.68944 1
-0.590417 1.74167 1.71913 100
-0.596973 1.76386 1.7383 3
-0.603746 1.76913 1.75365 1
-0.605112 1.78565 1.76125 1
-0.610053 1.81158 1.76942 1
-0.616263 1.82147 1.77843 3
-0.627054 1.83958 1.7828 1
-0.642947 1.87679 1.78508 4
-0.641635 1.9096 1.78846 4
-0.649939 1.92343 1.79387 4
-0.667231 1.96032 1.79688 4
-0.686378 2.00699 1.79955 4
-0.687878 2.04931 1.80253 4
-0.710599 2.10553 1.8046 4
-0.723919 2.12275 1.81061 3
-0.760124 2.22675 1.80919 3
-4.10233 12.1462 0.980486 3
-4.07188 12.0655 1.03193 4
-4.08674 12.0219 1.07963 4
-4.09927 12.0682 1.12068 4
-0.950354 2.82404 1.80839 6
-4.04548 12.0032 1.21424 5
nan nan nan nan
nan nan nan nan
nan nan nan nan
-4.11401 12.1276 1.29539 11
nan nan nan nan
-4.05706 12.044 1.34472 10
-4.06712 12.0577 1.36617 14
-4.05017 12.033 1.38964 14
-4.05021 12.0658 1.41239 14
-4.09552 12.0726 1.43209 18
-4.07706 12.1272 1.45178 37
-4.10071 12.1043 1.47515 11
-4.68592 13.922 1.4213 31
-4.05848 12.0572 1.52151 12
-4.06046 12.0469 1.5441 14
-4.05724 12.07 1.56537 20
-4.06448 12.0683 1.58766 16
-4.07699 12.0754 1.60967 20
-4.07256 12.0669 1.63212 25
-4.08393 12.0637 1.65448 28
-4.03611 12.0856 1.67568 33
-4.08228 12.0602 1.69893 6
-4.04788 12.0882 1.72009 37
-4.06084 12.0898 1.74459 31
-4.06589 12.0885 1.76465 37
-4.08522 12.1087 1.78662 34
-4.07908 12.0953 1.80907 37
-4.08667 12.0877 1.83151 37
-4.04343 12.1236 1.85264 38
-4.08694 12.083 1.87601 20
-4.04074 12.0829 1.89763 37
-4.09054 12.0822 1.92047 33
-4.05695 12.0778 1.94226 5
-4.0671 12.0639 1.96469 32
-4.06515 12.0698 1.98678 12
-4.07792 12.0707 2.00915 9
-4.03148 12.0968 2.0305 41
-4.08118 12.0749 2.05355 38
-4.03968 12.0888 2.07503 33
-4.08939 12.0878 2.09809 126
-4.07002 12.0886 2.14216 136
-4.07695 12.0908 2.18673 139
-4.08373 12.0984 2.23139 135
-4.08854 12.1012 2.27601 137
-4.03993 12.1288 2.43124 143
-4.06941 12.13 2.65515 138
-4.06018 12.1201 3.00075 135
-7.99059 23.8506 4.63298 29
nan nan nan nan
nan nan nan nan
nan nan nan nan
-0.533444 1.56687 1.22736 3
-0.756416 2.21512 1.15635 4
-0.758316 2.24467 1.30587 3
nan nan nan nan
-0.840329 2.50736 1.43255 3
nan nan nan nan
-0.585093 1.74893 1.68933 1
-0.582446 1.73913 1.7198 3
-0.5908 1.76592 1.7382 2
-0.595976 1.76652 1.75422 2
-0.598864 1.78774 1.76115 3
-0.603714 1.81369 1.76931 1
-0.609572 1.8237 1.77832 3
-0.620619 1.84174 1.78269 1
-0.637967 1.88373 1.78441 4
-0.636528 1.91654 1.78781 4
-0.644451 1.9305 1.79323 4
-0.660375 1.96262 1.79677 4
-0.680945 2.01408 1.79895 4
-0.682285 2.05641 1.80194 4
-0.704444 2.11284 1.80402 3
-0.719673 2.1347 1.80962 3
-0.753924 2.2341 1.80864 3
-4.06461 12.1746 0.978567 3
-4.03863 12.1134 1.02851 4
-4.05265 12.0597 1.07709 4
-4.06818 12.1155 1.11753 4
-0.94364 2.8368 1.80756 6
-4.00615 12.0321 1.21256 5
-4.33328 13.0503 1.16961 37
-4.03776 12.0243 1.25723 32
-4.32426 13.0035 1.22045 32
nan nan nan nan
-4.34853 13.0613 1.26503 36
-4.00866 12.0391 1.34504 20
nan nan nan nan
-4.00128 12.0335 1.38962 11
-4.47984 13.502 1.34193 34
-4.03904 12.0441 1.43339 37
nan nan nan nan
-4.05049 12.0948 1.47546 23
-4.65463 13.9904 1.41829 36
-4.00688 12.0428 1.52193 12
-4.79573 14.3933 1.45437 40
-3.98619 12.0041 1.56755 9
-3.99864 12.0113 1.58939 6
-4.01741 12.0373 1.61065 17
-4.01618 12.0384 1.63272 30
-4.04971 12.1015 1.65308 11
-3.98605 12.0759 1.67561 18
-4.03221 12.0507 1.69881 8
-3.99151 12.0596 1.72038 12
-3.99917 12.0524 1.74495 13
-4.00474 12.0456 1.76506 8
-4.01763 12.047 1.78726 20
-4.00681 12.0193 1.8098 29
-4.03653 12.0781 1.83113 11
-7.12967 21.6191 1.73407 37
-4.0257 12.0402 1.87589 4
-3.98755 12.0637 1.8972 12
-4.03089 12.0443 1.92011 20
-4.00059 12.0492 1.94175 1
-4.01706 12.0543 1.96405 25
-4.00722 12.0365 1.98613 35
-4.03735 12.0896 2.00843 28
nan nan nan nan
-7.69974 23.0382 2.09866 11
-3.98335 12.0601 2.07406 30
-4.06463 12.1541 2.09778 125
-4.0294 12.1075 2.14149 136
-4.04422 12.1334 2.18644 138
-4.04783 12.1315 2.23103 135
-4.05263 12.1344 2.27572 138
-4.00542 12.1665 2.43136 137
-4.03651 12.1726 2.65596 138
-4.02731 12.1626 3.00237 133
-7.91369 23.8974 4.63365 29
nan nan nan nan
nan nan nan nan
nan nan nan nan
-0.525057 1.56014 1.23158 3
-0.766619 2.27109 1.13553 4
-0.748929 2.24273 1.30717 3
nan nan nan nan
-0.899427 2.71419 1.38544 3
nan nan nan nan
-0.577419 1.74627 1.69008 104
-0.575108 1.73635 1.72048 4
-0.583067 1.76326 1.73881 3
-0.589794 1.76858 1.75412 11
-0.592609 1.78981 1.76104 4
-0.597369 1.81577 1.7692 1
-0.603511 1.82571 1.77822 6
-0.614176 1.84389 1.78258 1
-0.631378 1.88593 1.7843 4
-0.629825 1.91874 1.7877 4
-0.638037 1.93262 1.79312 4
-0.65351 1.96491 1.79665 4
-0.673901 2.01643 1.79883 4
-0.675093 2.05877 1.80182 4
-0.697425 2.11516 1.8039 3
-0.71378 2.14191 1.80906 3
-0.747681 2.24144 1.80809 3
-4.02516 12.1981 0.977048 3
-4.01089 12.1646 1.02477 4
-4.01677 12.0926 1.07492 4
-4.03054 12.1438 1.11577 4
-4.12438 12.5154 1.13485 4
nan nan nan nan
-4.26588 12.9989 1.17308 41
-4.30223 12.9621 1.19912 32
-4.28504 13.0375 1.21854 26
-4.34305 13.1038 1.23855 39
-4.29507 13.0527 1.2656 20
-4.29927 13.0632 1.28901 48
-4.37681 13.2809 1.3015 13
-4.41069 13.413 1.31916 13
-4.45289 13.5792 1.3381 20
-4.54524 13.7129 1.35427 21
-4.54681 13.8449 1.37338 15
-4.61367 13.9397 1.39474 17
-4.60419 14.0018 1.41766 29
nan nan nan nan
-4.83299 14.6757 1.44337 14
nan nan nan nan
-7.13476 21.6853 1.25536 17
nan nan nan nan
nan nan nan nan
-7.17674 21.7067 1.37444 17
-7.08885 21.7208 1.41326 9
-7.21916 21.8213 1.45132 6
-7.16456 21.8981 1.48893 14
-7.14847 21.7834 1.53578 19
-7.1474 21.753 1.57244 21
-7.15762 21.7188 1.61319 20
-7.11689 21.6065 1.65482 12
-7.12783 21.5876 1.69493 36
-7.19986 22.0906 1.72722 8
-7.26464 21.9752 1.77019 4
-7.35462 22.5092 1.80476 23
-7.41634 22.4051 1.84802 19
nan nan nan nan
nan nan nan nan
-7.49955 22.7993 1.97018 12
-7.59965 23.0347 2.01246 7
-7.61987 23.3963 2.05398 13
-7.12196 21.56 2.09109 12
-3.95055 12.1024 2.07351 32
-4.00705 12.1153 2.09669 128
-3.98712 12.1215 2.14078 137
-3.99561 12.1284 2.18544 137
-4.00234 12.1361 2.23013 136
-4.0171 12.162 2.27535 140
-3.9645 12.1852 2.43081 137
-4.00181 12.2104 2.65651 137
-3.99419 12.2051 3.00399 138
-7.76389 23.7217 4.60987 28
nan nan nan nan
nan nan nan nan
nan nan nan nan
-0.519569 1.56194 1.23149 3
-0.752712 2.2559 1.14229 3
nan nan nan nan
nan nan nan nan
-0.90213 2.7544 1.37674 3
nan nan nan nan
-0.572839 1.75295 1.68913 103
-0.56903 1.73833 1.72037 102
-0.576896 1.76527 1.73871 1
-0.582058 1.76591 1.75468 1
-0.586346 1.79186 1.76093 102
-0.591016 1.81784 1.76909 2
-0.597124 1.82779 1.77811 6
-0.607726 1.84601 1.78248 1
-0.624781 1.88812 1.78419 4
-0.624654 1.92564 1.78705 4
-0.632821 1.93955 1.79248 4
-0.648188 1.9719 1.79603 4
-0.666849 2.01877 1.79871 4
-0.667894 2.0611 1.80169 4
-0.679221 2.08443 1.80693 3
-0.7094 2.15385 1.80807 3
-0.742949 2.2535 1.80713 3
-3.99025 12.2357 0.974331 3
-3.97454 12.1975 1.02253 4
-3.98072 12.1255 1.07275 4
-3.99585 12.1814 1.11332 3
-0.939256 2.89074 1.80393 8
-4.1458 12.7478 1.16586 28
-4.18042 12.8902 1.18021 31
-4.23515 12.9106 1.20247 32
-4.22098 12.9954 1.2212 26
-4.28949 13.0951 1.23916 31
-4.24636 13.058 1.26537 22
-4.26598 13.1161 1.28616 15
-4.33039 13.2961 1.30072 13
-4.34913 13.391 1.32027 13
-4.43931 13.6992 1.33217 20
-4.49266 13.7144 1.35413 21
-4.49843 13.8607 1.37256 25
-4.56806 13.9652 1.3935 17
-4.5599 14.032 1.41624 35
-4.65203 14.3131 1.43072 12
-4.80337 14.7589 1.43996 22
-4.89829 15.1022 1.45447 9
-4.92827 15.1565 1.48034 8
-7.11056 21.8155 1.29056 19
nan nan nan nan
-7.10867 21.7553 1.37247 12
-7.02832 21.793 1.41069 9
-7.13516 21.8226 1.45063 10
-7.0896 21.9277 1.48753 10
-7.09323 21.8856 1.53279 11
-7.13625 21.9775 1.5672 10
-7.47646 22.9558 1.5901 20
-7.60141 23.3521 1.62574 11
-7.71435 23.6419 1.66461 10
-7.36806 22.877 1.71639 7
-7.34167 22.4709 1.76389 7
-7.25603 22.4729 1.80398 18
-7.3412 22.4403 1.84663 18
nan nan nan nan
-7.30066 22.4329 1.92842 19
nan nan nan nan
-7.51302 23.042 2.01109 7
-7.51518 23.3514 2.05245 22
-7.49218 22.9488 2.09536 11
-3.91597 12.14 2.07294 37
-4.00048 12.2386 2.09682 128
-3.9618 12.1876 2.14066 137
-3.96718 12.1851 2.18537 137
-3.96618 12.169 2.22977 133
-3.9824 12.1997 2.27517 138
-3.92809 12.218 2.43076 138
-3.96536 12.2433 2.65681 136
-3.95468 12.2285 3.00405 140
-8.06971 24.9507 4.74054 13
nan nan nan nan
nan nan nan nan
nan nan nan nan
-0.514075 1.56371 1.2314 3
-0.740388 2.24511 1.14733 4
nan nan nan nan
nan nan nan nan
-0.699159 2.16291 1.51327 3
nan nan nan nan
-0.569738 1.7643 1.68731 106
-0.555637 1.71671 1.72416 4
-0.570718 1.76727 1.7386 1
-0.575879 1.76792 1.75458 1
-0.580077 1.79388 1.76083 3
-0.586183 1.8246 1.76837 2
-0.592577 1.83448 1.77742 1
-0.602801 1.85284 1.78179 4
-0.619712 1.895 1.78352 4
-0.617918 1.9278 1.78694 2
-0.627905 1.94636 1.79185 4
-0.642825 1.97887 1.79541 4
-0.662861 2.03054 1.79762 4
-0.665258 2.07763 1.80017 4
-0.687579 2.13405 1.8023 3
-0.703407 2.16104 1.8075 3
-0.73507 2.25607 1.80699 3
-3.95053 12.259 0.972812 3
-3.94779 12.2532 1.01841 4
-3.94602 12.163 1.07021 4
-3.96556 12.2332 1.10982 3
-4.09189 12.7147 1.1215 4
-4.1057 12.7607 1.16518 13
-4.10034 12.7954 1.18644 36
-4.13925 12.7686 1.21145 36
-4.14049 12.9007 1.22703 23
-4.23758 13.091 1.2395 35
-4.20684 13.0918 1.26352 37
-4.24001 13.1927 1.28201 22
-4.29617 13.3491 1.29792 18
-4.30548 13.3999 1.3198 16
-4.41732 13.7954 1.3274 38
-4.44935 13.7442 1.35265 26
-4.45 13.8763 1.37175 23
-4.53155 14.019 1.39101 26
-4.51545 14.062 1.41482 30
-4.60508 14.3388 1.4295 21
-4.72273 14.6852 1.44255 30
-4.84928 15.1127 1.45384 8
-6.99232 21.7631 1.25182 8
-7.03282 21.8354 1.28943 17
-7.12315 22.1278 1.3204 10
-7.13858 22.1082 1.36166 11
-6.95523 21.8269 1.40915 9
nan nan nan nan
-7.01605 21.9618 1.48602 10
-7.06717 22.041 1.52877 11
-7.05796 21.9975 1.566 10
-7.08849 22.0251 1.60599 19
-7.70349 23.9496 1.61512 11
nan nan nan nan
-7.57636 23.8077 1.70367 7
-7.37536 22.8437 1.75886 7
-7.22314 22.641 1.80139 18
-7.27137 22.4788 1.84528 17
-7.22887 22.561 1.88508 3
-7.31261 22.7391 1.92615 19
-7.3387 22.8463 1.9675 12
-7.42796 23.0538 2.00973 7
nan nan nan nan
nan nan nan nan
-3.88118 12.1774 2.07236 41
-3.96757 12.2755 2.09632 128
-3.93759 12.2585 2.14059 136
-3.94606 12.2655 2.18565 135
-3.94363 12.2446 2.23021 135
-3.96344 12.2794 2.27597 139
-3.90058 12.2793 2.43171 136
-3.9272 12.2714 2.65685 136
-3.91507 12.2518 3.00411 140
nan nan nan nan
nan nan nan nan
nan nan nan nan
nan nan nan nan
-0.5083 1.56555 1.2313 3
-0.722343 2.2164 1.15927 3
nan nan nan nan
nan nan nan nan
-0.700545 2.19322 1.50673 3
nan nan nan nan
-0.562059 1.76157 1.68807 5
-0.55264 1.72803 1.72251 97
-0.564224 1.76933 1.73849 1
-0.569693 1.76991 1.75448 255
-0.5738 1.79588 1.76072 1
-0.578289 1.8219 1.76888 1
-0.58616 1.83652 1.77731 1
-0.596319 1.85492 1.78168 1
-0.613083 1.89714 1.78341 4
-0.612682 1.93467 1.78628 2
-0.622609 1.95327 1.79122 4
-0.637421 1.98583 1.79479 3
-0.65424 2.02809 1.79798 4
-0.654978 2.07044 1.80098 4
-0.671047 2.10796 1.80489 3
-0.695851 2.16347 1.80738 3
-0.736299 2.28708 1.80436 3
-0.73919 2.32882 1.80926 4
-3.911 12.2859 1.01616 3
-3.91263 12.2051 1.06731 4
-3.92584 12.2565 1.10841 3
-0.929624 2.93048 1.80128 9
-4.06038 12.7804 1.16408 23
-4.06241 12.8388 1.18383 34
-4.09462 12.7829 1.2107 31
-4.10294 12.9388 1.22484 40
-4.18575 13.0866 1.23984 30
-4.17318 13.1444 1.2606 32
-4.19542 13.2121 1.28097 35
-4.27223 13.4354 1.29336 12
-4.38168 13.8106 1.2988 32
-4.37724 13.8448 1.32492 25
-4.44239 13.8881 1.34575 28
-4.40453 13.9012 1.3705 20
-4.48408 14.0395 1.38998 31
-4.47539 14.1063 1.4128 36
-4.55195 14.3452 1.42904 30
-4.66688 14.6873 1.44223 36
-4.75006 14.9922 1.45794 8
-4.75729 14.9856 1.48564 9
-6.95805 21.8645 1.288 19
-7.03524 22.1191 1.32013 9
-7.02491 22.0186 1.36368 23
-6.88048 21.8558 1.40775 12
-7.00542 21.9432 1.44625 12
-6.93482 21.9719 1.48507 35
-6.96973 22.0143 1.52854 17
-6.98112 22.0219 1.56471 33
-7.02368 22.0878 1.60401 34
-6.9977 22.018 1.64551 10
-7.66136 24.0477 1.65676 11
nan nan nan nan
nan nan nan nan
-7.21322 22.8854 1.79811 33
-7.20961 22.5564 1.84359 36
-7.15067 22.6017 1.88362 3
-7.24229 22.7931 1.92472 19
-7.26346 22.886 1.96614 12
-7.13218 22.4031 2.00821 12
-7.05216 22.4493 2.04778 20
nan nan nan nan
-3.84617 12.2147 2.07179 49
-3.9384 12.3322 2.09592 131
-3.89932 12.2865 2.14003 135
-3.90777 12.2935 2.18514 135
-3.90999 12.2869 2.23002 132
-3.92057 12.2932 2.27525 137
-3.85773 12.2929 2.431 136
-3.8874 12.2946 2.65664 136
-3.87684 12.2796 3.00456 136
-7.32393 23.195 4.5392 13
nan nan nan nan
nan nan nan nan
nan nan nan nan
-0.501142 1.56307 1.23337 3
-0.741843 2.30376 1.12637 3
nan nan nan nan
nan nan nan nan
-0.790392 2.5029 1.43609 3
nan nan nan nan
-0.552921 1.75411 1.68967 5
-0.546591 1.72994 1.72241 105
-0.556237 1.76666 1.7391 1
-0.563499 1.77187 1.75437 3
-0.567517 1.79787 1.76062 1
-0.573409 1.82863 1.76816 1
-0.58123 1.84328 1.77661 1
-0.591331 1.86172 1.781 4
-0.607617 1.9041 1.78274 4
-0.607406 1.94153 1.78563 3
-0.617272 1.96017 1.79058 4
-0.633476 1.99752 1.79366 3
-0.649797 2.03996 1.79689 4
-0.65221 2.08695 1.79945 4
-0.666666 2.11979 1.80386 3
-0.692802 2.18013 1.80595 3
-0.7264 2.28501 1.80463 3
-0.734041 2.34088 1.80833 4
-0.752229 2.39344 1.81258 3
-3.87447 12.2329 1.0655 3
-3.89287 12.3088 1.10487 3
-3.9446 12.5573 1.1329 0
-4.01272 12.7849 1.16396 35
-4.01827 12.8631 1.18244 31
-4.04994 12.7971 1.20995 38
-4.05921 12.9578 1.22379 37
-4.13622 13.0971 1.23932 31
-4.12575 13.1541 1.2601 31
-4.15224 13.2362 1.27968 31
-4.21629 13.4216 1.29409 33
-4.33193 13.821 1.29824 20
-4.38596 14.0514 1.31472 30
nan nan nan nan
-4.35893 13.926 1.36925 31
nan nan nan nan
nan nan nan nan
-4.49884 14.3515 1.42858 31
-4.62006 14.7178 1.44083 32
-4.69918 15.0134 1.45689 17
-6.88716 21.9746 1.2436 20
-6.88466 21.8982 1.28641 20
-6.95198 22.1245 1.31943 9
-6.90429 21.931 1.3656 13
-6.80265 21.8749 1.4066 8
-6.90169 21.8817 1.44715 18
-6.83128 21.91 1.48582 36
-6.84508 21.8858 1.53055 20
-6.90931 22.076 1.56279 25
-6.94503 22.1074 1.60281 28
-6.96721 22.1902 1.64182 14
-7.48804 23.8193 1.65893 17
-7.58948 24.4377 1.69358 7
-7.29689 23.1521 1.7534 9
-7.2002 23.1252 1.79484 25
-7.15945 22.672 1.84163 17
-7.00071 22.4129 1.88338 3
-7.11029 22.6512 1.92397 28
-7.03998 22.4532 1.96555 14
-7.05062 22.4446 2.00677 9
-6.97822 22.4881 2.0465 23
-7.08925 22.511 2.08932 9
-3.81243 12.2567 2.07124 58
-3.90437 12.3745 2.09542 130
-3.8654 12.3286 2.13963 133
-3.87916 12.3602 2.18516 132
-3.88359 12.3529 2.23028 130
-3.88667 12.3354 2.27517 135
-3.82962 12.354 2.43194 133
-3.84682 12.3231 2.65665 138
-3.84077 12.3224 3.00614 134
-7.23498 23.2231 4.53771 13
nan nan nan nan
nan nan nan nan
nan nan nan nan
-0.493734 1.56065 1.23543 1
-0.723811 2.27499 1.13831 3
nan nan nan nan
nan nan nan nan
nan nan nan nan
nan nan nan nan
-0.54678 1.75602 1.68957 95
-0.540536 1.73182 1.7223 3
-0.550903 1.77349 1.73827 1
-0.557299 1.77382 1.75427 1
-0.562695 1.80456 1.75987 4
-0.568489 1.83534 1.76743 1
-0.574781 1.84529 1.7765 3
-0.586301 1.8685 1.78032 4
-0.602776 1.91084 1.78207 4
-0.600615 1.94363 1.78552 3
-0.611895 1.96705 1.78995 4
-0.62649 1.99971 1.79355 3
-0.644506 2.04684 1.79629 4
-0.644912 2.08921 1.79933 4
-0.66221 2.1316 1.80283 3
-0.68369 2.17777 1.80625 3
-0.721784 2.29691 1.80367 3
-0.731776 2.36246 1.80659 4
-0.748299 2.41033 1.81129 3
-0.771403 2.46124 1.81607 4
-0.888571 2.83273 1.79782 6
-3.95989 12.7615 1.11894 6
-3.99611 12.8894 1.15726 20
-3.98498 12.9309 1.17826 32
-4.01415 12.8397 1.20743 36
-4.03162 13.029 1.21959 32
-4.10166 13.1393 1.23692 30
-4.06499 13.1207 1.26204 33
-4.10894 13.2601 1.27839 31
nan nan nan nan
-4.32204 13.9601 1.2911 32
-4.34811 14.1207 1.31124 33
-4.39884 14.0904 1.33599 1
-4.34419 14.0509 1.36344 25
-4.44682 14.266 1.37978 30
-4.48471 14.4855 1.39655 37
-4.50784 14.558 1.42009 34
-4.62785 14.9247 1.43267 37
-4.7412 15.3352 1.44489 8
nan nan nan nan
-6.8126 21.9364 1.28466 17
-6.85692 22.0913 1.31991 14
-6.84573 21.986 1.36347 10
-6.77028 22.0418 1.40142 23
-6.90706 22.1681 1.4392 17
-6.83862 22.206 1.47811 12
-6.84684 22.1627 1.52381 19
-6.82947 22.1322 1.56074 23
-6.86781 22.1315 1.60152 17
nan nan nan nan
-7.63572 24.5588 1.64731 14
-7.45425 24.3015 1.69423 20
-7.18333 23.0724 1.75319 31
-7.1606 23.284 1.79229 36
-7.0758 22.6826 1.84041 17
-6.95878 22.583 1.88117 1
-7.04451 22.7189 1.9225 34
-6.96454 22.4872 1.96423 23
-6.9875 22.4905 2.0056 29
-6.99352 22.8182 2.04578 34
-7.03888 22.6263 2.08835 11
-3.77698 12.2938 2.07066 66
-3.87158 12.4214 2.09494 129
-3.83122 12.3707 2.13923 89
-3.84705 12.4017 2.1849 131
-3.84937 12.3951 2.23009 129
-3.85699 12.3919 2.2754 134
-3.80114 12.4151 2.43289 132
-3.82597 12.4237 2.66043 133
-3.80374 12.3704 3.00807 132
-7.16212 23.2458 4.5365 17
nan nan nan nan
nan nan nan nan
nan nan nan nan
-0.489069 1.56208 1.23535 45
-0.715823 2.27747 1.13818 3
-0.612339 1.96944 1.39661 4
nan nan nan nan
-0.489605 1.59383 1.64531 1
nan nan nan nan
-0.536274 1.74378 1.69203 1
-0.534474 1.73369 1.7222 1
-0.544175 1.77038 1.7389 1
-0.551092 1.77574 1.75417 3
-0.554929 1.80176 1.76041 1
-0.562068 1.83731 1.76733 1
-0.568326 1.84728 1.77639 3
-0.579765 1.87053 1.78021 4
-0.597562 1.91767 1.7814 4
-0.595274 1.95046 1.78487 3
-0.605015 1.96916 1.78983 3
-0.620964 2.00663 1.79293 3
-0.640288 2.05858 1.79519 3
-0.639064 2.0962 1.79874 4
-0.656219 2.13865 1.80225 3
-0.677548 2.18489 1.80569 3
-0.719632 2.31845 1.80187 3
-0.72498 2.36975 1.80605 4
-0.74426 2.42722 1.81 3
-0.767214 2.4782 1.81483 4
-0.896312 2.893 1.79348 6
-3.93137 12.8277 1.11455 8
-3.95691 12.9223 1.15526 23
-3.95174 12.9515 1.17705 36
-3.96927 12.8536 1.20668 37
-4.00795 13.1146 1.21452 31
-4.06749 13.1917 1.23393 28
-4.01036 13.1061 1.26289 34
-4.04944 13.2314 1.27997 23
-4.4679 14.5773 1.23291 15
-4.26741 13.9559 1.29126 33
-4.35233 14.276 1.30355 28
nan nan nan nan
-4.31113 14.1185 1.36023 32
-4.41313 14.3339 1.37666 30
-4.43848 14.5153 1.39511 30
-4.45113 14.5545 1.42001 33
-4.6079 15.0458 1.42778 31
-4.68908 15.3565 1.44382 13
-6.67217 21.8214 1.248 14
nan nan nan nan
-6.77681 22.1055 1.31893 10
-6.78508 22.0622 1.36066 28
-6.7107 22.1226 1.39857 17
-6.80168 22.1013 1.44022 32
-6.73487 22.1436 1.47886 25
-6.75775 22.1482 1.52335 28
-6.77106 22.1762 1.55917 23
-6.79051 22.1553 1.60023 29
-6.85749 22.3864 1.63681 14
-6.90741 22.4919 1.67629 17
nan nan nan nan
-7.02189 22.8345 1.7547 29
nan nan nan nan
-7.02015 22.7836 1.83854 26
-6.93549 22.747 1.87928 3
-6.97103 22.7624 1.92111 29
-6.89039 22.5257 1.9629 17
-7.05703 22.9975 2.00433 30
-6.90225 22.8042 2.04439 31
-6.96722 22.6746 2.08713 11
-3.74132 12.3308 2.07008 62
-3.82968 12.4397 2.09426 121
-3.79242 12.3983 2.13867 133
-3.82131 12.4724 2.18503 137
-3.82077 12.4562 2.23024 116
-3.8152 12.4101 2.27478 134
-3.75781 12.4283 2.43217 134
-3.7695 12.3783 2.65674 133
-3.76202 12.3728 3.00665 133
nan nan nan nan
nan nan nan nan
nan nan nan nan
nan nan nan nan
-0.483575 1.56374 1.23526 3
-0.675883 2.17681 1.17773 3
nan nan nan nan
nan nan nan nan
-0.48545 1.60018 1.64415 4
nan nan nan nan
-0.527297 1.7362 1.69364 3
-0.529542 1.74034 1.72132 1
-0.537979 1.77226 1.7388 3
-0.544879 1.77764 1.75406 1
-0.548625 1.80368 1.76031 2
-0.55564 1.83925 1.76722 4
-0.562985 1.85409 1.77569 1
-0.573222 1.87253 1.7801 4
-0.590854 1.91973 1.78129 2
-0.588452 1.95251 1.78475 4
-0.605005 1.99515 1.7871 3
-0.621198 2.03257 1.79029 4
-0.634542 2.06555 1.79459 3
-0.638938 2.12223 1.79627 4
-0.651255 2.15056 1.80122 3
-0.672819 2.19676 1.80469 3
-0.711526 2.32094 1.80173 3
-0.721035 2.38657 1.80471 4
-0.739685 2.44423 1.80871 3
-0.774558 2.53332 1.81066 4
-0.887653 2.90088 1.79296 6
-3.89521 12.87 1.11183 9
-3.93114 13.0083 1.14977 29
-3.93814 13.0703 1.16959 31
-3.92435 12.8674 1.20593 36
-3.97077 13.1572 1.21204 30
-3.99814 13.1293 1.23763 32
nan nan nan nan
-3.96417 13.1163 1.28627 33
-4.35473 14.3873 1.24294 35
-4.31432 14.2965 1.27381 31
-4.30964 14.315 1.30155 31
-4.38032 14.3835 1.32189 29
-4.37998 14.5256 1.34153 32
-4.38918 14.4352 1.37206 30
-4.37765 14.4972 1.39567 34
-4.42485 14.6512 1.41591 33
-4.49022 14.8466 1.43515 29
nan nan nan nan
-4.69078 15.5345 1.46536 8
nan nan nan nan
-6.70538 22.1481 1.31705 11
-6.72107 22.1288 1.35813 12
-6.63773 22.1603 1.3969 17
-6.72593 22.1296 1.43882 17
-6.6532 22.1526 1.47792 14
-6.73418 22.3642 1.51785 29
-6.77153 22.4582 1.55271 28
-6.8029 22.4756 1.59355 9
nan nan nan nan
-7.45102 24.5685 1.64509 32
-6.76694 22.6238 1.71353 13
-6.93342 22.8301 1.7537 23
-6.86428 22.888 1.79366 11
-6.93805 22.8139 1.83712 13
-6.86038 22.7854 1.87789 3
-6.89733 22.8058 1.91973 35
nan nan nan nan
-7.01151 23.1369 2.003 17
-6.81259 22.7947 2.04302 30
-6.89676 22.7275 2.08592 17
-6.94984 23.1918 2.12841 21
nan nan nan nan
-7.19147 23.8125 2.26279 13
-3.75462 12.4091 2.18319 37
nan nan nan nan
-6.60619 21.7709 2.47897 25
nan nan nan nan
-3.71625 12.358 2.65425 38
-3.73176 12.4289 3.00943 45
-6.87693 22.8858 4.48924 30
nan nan nan nan
nan nan nan nan
nan nan nan nan
-0.47835 1.56531 1.23517 3
-0.673731 2.19707 1.1707 3
nan nan nan nan
nan nan nan nan
-0.48973 1.63458 1.63657 104
-0.495378 1.65717 1.67463 3
-0.507024 1.69085 1.7021 1
-0.516336 1.71852 1.72511 3
-0.527826 1.7598 1.74086 3
-0.538659 1.77952 1.75396 1
-0.543734 1.81032 1.75955 3
-0.550633 1.84592 1.76649 1
-0.557926 1.86079 1.77499 3
-0.569539 1.88402 1.77884 4
-0.585575 1.92653 1.78062 2
-0.584472 1.96407 1.78356 3
-0.600883 2.00677 1.78594 3
-0.615524 2.03948 1.78966 3
-0.628755 2.07251 1.79398 3
-0.632941 2.12921 1.79567 4
-0.643735 2.15281 1.80109 3
-0.665138 2.19909 1.80457 3
-0.704847 2.32817 1.80118 3
-0.716981 2.40338 1.80337 4
-0.733997 2.45634 1.8078 3
-0.771456 2.5551 1.80905 4
-0.887571 2.93738 1.79035 8
-3.85308 12.893 1.11042 10
-3.89138 13.0411 1.14776 25
-3.89332 13.0785 1.16918 30
-3.88945 12.9144 1.20311 33
-3.95327 13.2666 1.20552 17
-3.95226 13.1432 1.23687 28
nan nan nan nan
-3.92833 13.1636 1.28368 43
nan nan nan nan
-4.27435 14.345 1.27127 36
-4.24646 14.2766 1.30336 34
-4.35451 14.48 1.3172 30
-4.31783 14.5025 1.34244 35
-4.36458 14.5366 1.36746 33
-4.31842 14.4837 1.39604 58
-4.37937 14.6857 1.4143 32
-4.44407 14.8813 1.43356 39
nan nan nan nan
-6.06917 20.3434 1.29833 9
-6.6211 22.1357 1.27661 10
-6.65376 22.2575 1.3131 25
-6.65812 22.2 1.35546 13
-6.57166 22.2216 1.39458 27
-6.66444 22.2056 1.4362 30
-6.58435 22.2044 1.47596 35
-6.64039 22.3349 1.51771 36
-6.67132 22.3942 1.55321 35
-6.71438 22.4656 1.59286 20
-6.79257 22.7403 1.62918 4
nan nan nan nan
-6.67659 22.609 1.71272 28
-6.8307 22.7776 1.75322 23
-6.77298 22.8735 1.7927 17
-6.85694 22.8332 1.83583 13
-6.78907 22.8224 1.87657 3
nan nan nan nan
-6.89014 23.1003 1.95931 25
-6.82471 22.8067 2.00168 11
nan nan nan nan
-7.11173 23.7333 2.08817 14
-6.90434 23.3358 2.12772 19
-6.92808 23.0885 2.17002 8
-7.16261 24.0195 2.2634 10
nan nan nan nan
-6.72142 22.4635 2.41038 9
-6.57467 21.9423 2.48095 25
nan nan nan nan
nan nan nan nan
nan nan nan nan
-6.81411 22.967 4.49414 29
nan nan nan nan
nan nan nan nan
nan nan nan nan
-0.470241 1.5583 1.2394 1
nan nan nan nan
nan nan nan nan
nan nan nan nan
-0.482608 1.63158 1.63755 103
-0.485383 1.64475 1.67739 3
-0.501104 1.69259 1.702 97
-0.511727 1.72504 1.72424 1
-0.523072 1.76637 1.74004 1
-0.532432 1.78138 1.75386 1
-0.5374 1.8122 1.75945 12
-0.544176 1.84782 1.76639 1
-0.551417 1.86271 1.77488 4
-0.562949 1.88599 1.77874 4
-0.580256 1.93332 1.77996 4
-0.57901 1.97086 1.78291 4
-0.596686 2.01838 1.78478 3
-0.611225 2.05114 1.78853 3
-0.624347 2.08422 1.79289 3
-0.626903 2.13617 1.79508 4
-0.637619 2.15981 1.80052 3
-0.657449 2.20139 1.80444 3
-0.700966 2.34493 1.79979 3
-0.712818 2.4202 1.80203 4
-0.728233 2.46844 1.80689 4
-0.766789 2.57211 1.8078 4
-0.888665 2.9787 1.78739 9
-3.8165 12.935 1.10769 11
-3.85003 13.0689 1.14607 25
-3.83688 13.0639 1.17022 17
-3.8628 12.9901 1.19851 32
-3.92521 13.3425 1.20101 28
-3.98866 13.4345 1.2199 20
nan nan nan nan
nan nan nan nan
-4.06186 13.7659 1.27576 17
nan nan nan nan
nan nan nan nan
-4.29254 14.4567 1.31818 45
nan nan nan nan
-4.31237 14.5469 1.36683 32
-4.26499 14.4891 1.39561 37
-4.28429 14.5523 1.41942 34
-4.40056 14.9254 1.4316 33
-4.4478 15.1417 1.45075 8
-6.47669 21.9895 1.24079 34
-6.5466 22.1682 1.27502 11
-6.57176 22.2662 1.31227 12
-6.61886 22.3524 1.3504 17
-6.51086 22.302 1.39173 8
-6.60534 22.291 1.43333 23
-6.5096 22.2369 1.47446 14
-6.55674 22.3387 1.51685 31
-6.53386 22.2159 1.55598 31
-6.58357 22.3115 1.59482 13
nan nan nan nan
-6.69841 22.6541 1.67106 12
-6.60043 22.6417 1.7113 11
-6.72985 22.7293 1.7527 32
-6.69731 22.9114 1.79126 33
-6.95915 23.4706 1.83001 37
-6.80094 23.1578 1.87352 1
nan nan nan nan
-6.80241 23.1003 1.95803 23
nan nan nan nan
-6.67571 22.9185 2.04053 30
-7.00616 23.6812 2.08653 34
-6.84249 23.427 2.12674 17
-7.1983 24.2967 2.17722 8
-6.62136 22.4904 2.24522 10
-7.13699 24.2084 2.35198 9
-6.5424 22.1464 2.40292 9
-6.69379 22.6266 2.49409 25
nan nan nan nan
-6.6071 22.5273 3.18723 12
nan nan nan nan
-6.73824 23.0051 4.49437 28
nan nan nan nan
nan nan nan nan
nan nan nan nan
-0.466322 1.56414 1.23716 3
-0.626097 2.09373 1.21187 3
nan nan nan nan
nan nan nan nan
-0.475512 1.62856 1.63852 3
-0.486526 1.66998 1.67254 3
-0.497951 1.70377 1.70019 2
-0.508469 1.73628 1.72258 1
-0.5172 1.76808 1.73994 3
-0.527597 1.78797 1.75308 1
-0.531059 1.81405 1.75934 3
-0.537711 1.8497 1.76628 4
-0.546295 1.86938 1.77418 3
-0.557752 1.89269 1.77805 4
-0.574897 1.94009 1.77929 4
-0.572116 1.97286 1.7828 3
-0.589627 2.02044 1.78466 3
-0.604052 2.05325 1.78842 3
-0.617059 2.08638 1.79277 3
-0.619433 2.13834 1.79496 4
-0.632856 2.17158 1.79948 3
-0.651157 2.20844 1.80388 3
-0.699783 2.37126 1.79756 3
-0.70715 2.43223 1.80109 4
-0.726579 2.49489 1.80482 4
-0.770444 2.61782 1.80435 4
-0.889481 3.02007 1.78442 10
-3.77407 12.9578 1.10628 12
-3.79459 13.0487 1.14752 39
-3.79718 13.0806 1.16925 37
-3.87642 13.2046 1.18529 31
-3.88415 13.3753 1.19909 35
-3.9389 13.4387 1.21969 33
-3.89105 13.3812 1.2474 30
nan nan nan nan
-4.00397 13.7464 1.27674 33
nan nan nan nan
-4.0142 13.8398 1.32461 29
nan nan nan nan
-4.03976 13.9229 1.36858 39
-4.26855 14.5858 1.36495 34
-4.21297 14.499 1.39498 34
-4.23485 14.5719 1.4184 36
-4.35679 14.9694 1.42964 29
-4.39211 15.1475 1.45024 19
-4.49555 15.4515 1.46727 33
-6.46776 22.1861 1.27391 8
-6.47721 22.2314 1.31279 25
-6.51975 22.3034 1.35122 12
-6.43434 22.3293 1.39032 30
nan nan nan nan
nan nan nan nan
-6.4648 22.3134 1.51662 11
-6.45875 22.2326 1.55487 9
-6.51683 22.3727 1.59284 23
-6.52189 22.4031 1.63292 14
-6.62349 22.6917 1.66955 28
-6.53104 22.6982 1.70957 0
-6.63925 22.7143 1.75182 36
-6.60621 22.8962 1.7903 30
nan nan nan nan
nan nan nan nan
-6.81602 23.4192 1.91374 32
-6.80825 23.4215 1.95612 25
nan nan nan nan
-6.70488 23.3212 2.03983 29
-6.49859 22.2514 2.08008 32
nan nan nan nan
-6.45236 22.0614 2.15969 8
-6.89995 23.7425 2.25714 9
-6.74808 23.1867 2.33554 9
nan nan nan nan
-6.51951 22.3236 2.48572 31
-6.86017 23.8818 2.82051 8
-6.51715 22.4964 3.18323 12
-6.61404 22.8673 3.84818 7
nan nan nan nan
nan nan nan nan
nan nan nan nan
nan nan nan nan
-0.458277 1.55708 1.24139 3
nan nan nan nan
nan nan nan nan
-0.803117 2.72698 1.29334 3
-0.801063 2.76986 1.37835 4
-0.480678 1.67165 1.67244 3
-0.507055 1.75754 1.69067 115
-0.506511 1.75226 1.72014 3
-0.515127 1.78413 1.73768 3
-0.522723 1.79455 1.7523 4
-0.526082 1.82065 1.75859 4
-0.532618 1.85632 1.76556 4
-0.541133 1.87604 1.77348 4
-0.552515 1.89939 1.77737 4
-0.568111 1.94207 1.77918 4
-0.567964 1.98439 1.7816 4
-0.583939 2.02725 1.78402 3
-0.598255 2.06011 1.78779 4
-0.611149 2.09329 1.79216 3
-0.614704 2.15005 1.79389 4
-0.628018 2.18333 1.79845 3
-0.646213 2.22026 1.80288 3
-0.690106 2.36889 1.79784 3
-0.700026 2.43947 1.80055 4
-0.719235 2.5022 1.8043 4
-0.7724 2.6588 1.80127 5
-0.885858 3.0471 1.7825 13
-3.73016 12.9757 1.10521 12
-3.73522 13.0138 1.14993 38
-3.82884 13.3727 1.15069 34
-3.83444 13.2324 1.18364 34
-3.83603 13.3839 1.19862 36
-3.88362 13.4235 1.2206 54
-3.83739 13.3707 1.24799 30
-3.8729 13.4918 1.26566 35
-3.94903 13.7363 1.27723 42
-3.93254 13.7216 1.30291 37
-3.96204 13.8496 1.32401 30
-4.04019 13.9633 1.34135 34
-4.0131 14.0138 1.36428 25
-4.1317 14.303 1.37715 29
-4.15267 14.48 1.39557 28
-4.18669 14.5962 1.41718 31
-4.32796 15.0662 1.42566 29
-4.38457 15.3213 1.44358 13
-4.44019 15.4623 1.46656 10
-6.39025 22.2085 1.27264 17
-6.38298 22.1962 1.31331 23
-6.44461 22.3356 1.34967 23
-6.3153 22.2074 1.39302 9
-6.40237 22.1732 1.43496 28
-6.39805 22.4355 1.46826 14
-6.41023 22.4175 1.51356 23
nan nan nan nan
nan nan nan nan
-7.12816 24.8091 1.59217 6
-6.54977 22.7339 1.66797 4
nan nan nan nan
nan nan nan nan
-6.51392 22.8758 1.7894 17
-6.68271 23.1295 1.83022 5
-6.62803 23.1507 1.87124 3
-6.65695 23.1737 1.91344 29
-6.71544 23.4067 1.95487 30
-6.78738 23.5785 1.99761 28
-6.5702 23.1569 2.03821 28
-6.29343 21.8319 2.07729 31
-6.45574 22.6903 2.12 28
-6.42803 22.2663 2.15972 25
-6.30299 21.9738 2.23665 11
-6.29603 21.9174 2.31571 9
-6.49837 22.5759 2.40729 5
nan nan nan nan
-6.15246 21.7037 2.74381 8
-6.43454 22.5046 3.18119 12
-6.5507 22.9478 3.85152 7
-6.38408 22.3726 4.4183 25
nan nan nan nan
nan nan nan nan
nan nan nan nan
-0.450286 1.54997 1.24563 3
nan nan nan nan
-0.651311 2.26255 1.30846 3
-0.792211 2.72508 1.2944 3
-0.794053 2.78201 1.37605 3
-0.476171 1.67803 1.6714 3
-0.500902 1.75928 1.69057 3
-0.500378 1.75401 1.72004 3
-0.508883 1.7859 1.73758 3
-0.516444 1.79635 1.7522 4
-0.521065 1.82723 1.75784 3
-0.527485 1.86293 1.76483 4
-0.535931 1.88268 1.77278 4
-0.547238 1.90607 1.77668 4
-0.564058 1.95359 1.77795 4
-0.562381 1.99113 1.78095 4
-0.57821 2.03405 1.78338 3
-0.593423 2.07185 1.78666 4
-0.606569 2.10497 1.79106 3
-0.609901 2.16175 1.79283 4
-0.619023 2.18071 1.79878 3
-0.643938 2.24164 1.801 3
-0.690042 2.40002 1.79519 3
-0.703765 2.48503 1.79679 4
-0.718657 2.53346 1.80185 4
-0.771335 2.69024 1.79891 5
-0.888908 3.09812 1.77883 13
-3.68481 12.9886 1.10447 30
-3.68701 13.0171 1.14982 25
-3.7821 13.3859 1.14993 34
-3.79779 13.2792 1.1808 36
-3.78789 13.3924 1.19814 33
-3.83123 13.4178 1.22096 39
-3.81518 13.4704 1.24234 32
-3.82031 13.486 1.26594 29
-3.89422 13.7259 1.27772 25
-3.88595 13.74 1.30189 26
-3.91365 13.8633 1.32323 36
nan nan nan nan
-4.04287 14.3065 1.35075 29
-4.08994 14.3461 1.37508 31
-4.07756 14.4079 1.39838 33
nan nan nan nan
-4.29986 15.1677 1.42148 49
-4.34055 15.3701 1.44148 33
-4.38481 15.4729 1.46585 8
nan nan nan nan
-6.30407 22.2135 1.3122 13
-6.36932 22.3676 1.34812 6
-6.24988 22.2726 1.39056 25
-6.38521 22.4069 1.42827 20
-6.31427 22.4385 1.46744 33
-6.2654 22.204 1.51744 33
-6.36461 22.4936 1.54795 28
-6.38911 22.5186 1.58843 23
-6.40349 22.5827 1.62813 17
-6.46764 22.747 1.66682 31
-6.97436 24.8903 1.67907 10
nan nan nan nan
-6.50844 23.1631 1.78563 29
-6.62662 23.2392 1.82825 29
-6.55398 23.1977 1.86979 3
-6.56921 23.1728 1.91221 29
-6.66502 23.5407 1.9533 29
-6.70232 23.5924 1.99627 10
-6.64579 23.7382 2.03774 11
-6.35407 22.3347 2.07768 13
-6.29541 22.4239 2.11723 23
-6.39139 22.4329 2.15946 13
-6.63333 23.4497 2.25074 30
-6.38032 22.5069 2.32255 11
-6.29793 22.1705 2.39835 29
-6.18985 21.758 2.47002 28
-6.97076 24.9206 2.85163 7
nan nan nan nan
nan nan nan nan
-6.31013 22.4092 4.41858 20
nan nan nan nan
nan nan nan nan
nan nan nan nan
-0.443593 1.54717 1.2477 3
nan nan nan nan
-0.841583 2.96535 1.09036 3
-0.783991 2.73246 1.29302 3
-0.803761 2.85536 1.35982 3
-0.471626 1.68439 1.67035 1
-0.494743 1.76101 1.69047 3
-0.494239 1.75573 1.71994 1
-0.502634 1.78766 1.73748 1
-0.509844 1.79822 1.75209 1
-0.513336 1.82426 1.75838 1
-0.520642 1.86484 1.76472 4
-0.529346 1.88453 1.77268 4
-0.540237 1.90805 1.77657 4
-0.557225 1.95553 1.77784 4
-0.555417 1.99307 1.78083 4
-0.572441 2.04084 1.78274 3
-0.585815 2.074 1.78653 3
-0.600561 2.11185 1.79046 3
-0.602342 2.16385 1.79271 4
-0.616774 2.20203 1.79684 3
-0.634354 2.23918 1.80131 3
-0.683004 2.4072 1.79463 3
-0.695078 2.48746 1.79665 4
-0.711145 2.54074 1.80132 4
-0.773647 2.73623 1.79544 5
nan nan nan nan
-3.63941 13.0013 1.10374 12
-3.64017 13.0251 1.1494 30
-3.72594 13.3654 1.15132 28
-3.72875 13.221 1.18448 37
-3.74243 13.4103 1.1971 29
-3.79516 13.4695 1.21795 29
-3.76306 13.4747 1.24209 31
-3.7678 13.48 1.26623 29
-3.84086 13.7202 1.27796 29
-3.8366 13.7486 1.30135 29
-3.86387 13.872 1.32268 33
-3.95907 14.0591 1.33652 33
-3.97009 14.2387 1.35368 30
-4.05198 14.4036 1.37236 33
-4.0368 14.466 1.3957 36
-4.18013 14.9666 1.40178 32
-4.24283 15.1681 1.42118 33
-4.30697 15.4574 1.43797 42
-4.3173 15.4399 1.46664 34
-4.35183 15.5402 1.49133 5
-6.22647 22.2353 1.31094 9
-6.28173 22.3559 1.34784 12
-6.16541 22.2701 1.38997 14
-6.31913 22.4724 1.42588 9
-6.22385 22.417 1.46721 14
-6.19589 22.2546 1.51555 29
-6.23228 22.3231 1.55059 9
nan nan nan nan
nan nan nan nan
nan nan nan nan
-6.49024 23.4785 1.6964 13
-6.45785 22.9847 1.74568 34
-6.42354 23.1712 1.78445 20
-6.55766 23.3055 1.82661 25
-6.48237 23.2542 1.86828 1
nan nan nan nan
-6.59223 23.5975 1.9519 20
-6.61859 23.6108 1.99494 21
-6.53627 23.6649 2.03626 11
nan nan nan nan
nan nan nan nan
-6.70689 23.8557 2.16792 12
-6.37547 22.8574 2.24286 6
-6.20215 22.1727 2.31622 29
-6.17329 22.0239 2.39409 29
-6.10444 21.7458 2.46807 9
-6.00754 21.7703 2.74217 17
nan nan nan nan
-6.29979 22.6665 3.82265 6
-6.23733 22.4504 4.41938 13
nan nan nan nan
nan nan nan nan
nan nan nan nan
-0.436926 1.54434 1.24977 3
nan nan nan nan
-0.733306 2.6176 1.1992 3
nan nan nan nan
-0.456599 1.64909 1.63494 1
-0.467042 1.69074 1.6693 5
-0.476697 1.72 1.69809 1
-0.485447 1.74792 1.7214 3
-0.493735 1.77985 1.73882 1
-0.502608 1.80024 1.75197 1
-0.506954 1.82603 1.75828 1
-0.514445 1.86654 1.76462 4
-0.522754 1.88635 1.77257 4
-0.533892 1.91498 1.77587 4
-0.551721 1.96224 1.77717 4
-0.549771 1.99978 1.78018 4
-0.567958 2.0524 1.78158 3
-0.581827 2.0906 1.78488 4
-0.595848 2.12351 1.78936 3
-0.598747 2.18033 1.79117 4
-0.609075 2.20416 1.79671 3
-0.629749 2.25599 1.79985 3
-0.674588 2.40956 1.7945 3
-0.687711 2.49467 1.7961 4
-0.707575 2.56242 1.79963 4
-0.769803 2.76319 1.79343 6
-3.66186 13.1521 1.04558 6
-3.59397 13.0139 1.103 32
-3.60659 13.081 1.14582 25
-3.65277 13.282 1.15671 30
-3.68727 13.2688 1.18157 32
-3.68232 13.3751 1.19924 31
-3.75076 13.4922 1.21663 30
-3.717 13.4822 1.24164 38
-3.7353 13.546 1.26257 29
-3.80755 13.7864 1.27438 20
-3.78855 13.7619 1.30058 29
-3.81672 13.8902 1.32166 29
-3.87966 13.9827 1.33999 37
-3.9124 14.2235 1.3542 35
-3.99631 14.3983 1.37239 34
-4.04589 14.6864 1.38622 35
-4.11323 14.9281 1.40307 33
-4.19116 15.1876 1.42013 28
-4.26621 15.5205 1.43533 17
-4.23413 15.3489 1.46946 14
-6.17358 22.394 1.26479 25
-6.15146 22.2665 1.30938 17
-6.20764 22.3921 1.34615 25
nan nan nan nan
-6.87695 24.7869 1.36564 11
nan nan nan nan
nan nan nan nan
nan nan nan nan
nan nan nan nan
-6.17919 22.3859 1.62959 5
nan nan nan nan
-6.17268 22.6221 1.70664 29
-6.36288 22.9541 1.74497 28
-6.33867 23.179 1.78328 23
-6.49901 23.4101 1.82467 30
-6.39852 23.267 1.86702 3
-6.55822 23.83 1.90689 28
nan nan nan nan
-6.62273 23.947 1.99349 13
-6.54462 24.0048 2.03543 12
-6.64529 23.9926 2.0804 11
-6.00034 21.9609 2.11216 13
-6.61157 23.8356 2.16628 13
-6.30756 22.954 2.24219 9
-6.06626 21.9822 2.31198 11
-6.11641 22.1176 2.39413 20
-6.03788 21.8007 2.46756 14
-6.79805 24.9735 2.84898 7
-6.44867 23.481 3.22482 32
-6.20229 22.6212 3.81597 11
-6.60969 24.1174 4.59524 10
nan nan nan nan
nan nan nan nan
nan nan nan nan
-0.431223 1.5459 1.24968 1
nan nan nan nan
nan nan nan nan
-0.854408 3.06005 1.20813 3
-0.449524 1.64595 1.63592 3
-0.468909 1.72075 1.6635 3
-0.473283 1.73114 1.69628 2
-0.481943 1.75912 1.71974 2
-0.488499 1.78641 1.73799 1
-0.499882 1.81127 1.75053 1
-0.503171 1.83734 1.75687 1
-0.509226 1.8731 1.7639 4
-0.518776 1.89773 1.77128 4
-0.529514 1.92134 1.7752 4
-0.542219 1.95457 1.77817 4
-0.540162 1.99208 1.78115 4
-0.54243 1.9872 1.78881 3
-0.571665 2.07792 1.7863 3
-0.600298 2.16875 1.78484 3
-0.59243 2.1872 1.79057 4
-0.602679 2.21107 1.79614 3
-0.626613 2.27236 1.79843 3
-0.670122 2.4263 1.7931 3
-0.682928 2.51147 1.79475 4
-0.702551 2.57929 1.79833 4
-0.767713 2.78963 1.79145 6
-3.61457 13.16 1.04519 6
-3.56685 13.0937 1.0976 20
-3.58575 13.1849 1.13908 31
-3.56878 13.1652 1.16423 31
-3.64289 13.2707 1.18149 32
-3.6395 13.4023 1.19762 25
-3.70756 13.5196 1.21502 35
-3.66857 13.4903 1.24115 36
-3.68797 13.5589 1.26181 32
-3.76462 13.8189 1.27259 29
-3.73916 13.7702 1.30005 28
-3.76706 13.9089 1.3206 30
-3.84097 14.0141 1.33837 40
-3.79473 13.9863 1.36485 29
-3.94205 14.3977 1.37222 31
-3.97885 14.6425 1.38783 30
-4.06108 14.9424 1.40223 32
-4.14729 15.2359 1.41798 34
-4.22507 15.5835 1.43269 17
-4.25517 15.6488 1.45864 11
-6.06894 22.2568 1.26888 9
nan nan nan nan
nan nan nan nan
-6.69782 24.8655 1.317 9
-6.79565 24.83 1.36375 11
nan nan nan nan
nan nan nan nan
nan nan nan nan
-6.10564 22.4106 1.58783 4
-6.12201 22.4845 1.62704 12
-6.15274 22.5336 1.66713 31
-6.1352 22.8135 1.70309 9
-6.3566 23.2462 1.74064 24
-6.26163 23.2155 1.78185 11
nan nan nan nan
-6.31059 23.2806 1.86571 1
-6.47852 23.7999 1.90601 31
-6.66205 24.5066 1.94729 13
nan nan nan nan
-6.45791 24.0334 2.03402 32
-6.5668 24.035 2.07912 10
-6.48584 24.0672 2.12125 10
-6.5178 23.82 2.16467 13
nan nan nan nan
-6.4226 23.5952 2.33308 11
nan nan nan nan
-5.95914 21.812 2.46613 9
-5.88143 21.9083 2.74299 8
-6.41092 23.6829 3.23271 8
-6.23519 23.0721 3.84896 9
-6.01457 22.2487 4.39053 10
nan nan nan nan
nan nan nan nan
nan nan nan nan
-0.425786 1.54736 1.2496 1
nan nan nan nan
nan nan nan nan
-0.843683 3.06298 1.20796 3
-0.43223 1.60507 1.64547 4
-0.464164 1.7271 1.66245 3
-0.464648 1.72326 1.69789 4
-0.475786 1.76077 1.71964 3
-0.483535 1.79287 1.73717 4
-0.493545 1.81299 1.75043 3
-0.496743 1.83908 1.75677 3
-0.505262 1.88444 1.76255 4
-0.513432 1.90432 1.77058 4
-0.524093 1.92796 1.77452 4
-0.541896 1.98041 1.77527 4
-0.539647 2.01795 1.77833 4
-0.556184 2.06589 1.7803 3
-0.570894 2.1039 1.78365 3
-0.583595 2.1372 1.78814 3
-0.584783 2.18925 1.79045 4
-0.59236 2.20353 1.79692 3
-0.619973 2.27933 1.79786 3
-0.669454 2.45747 1.79044 3
-0.678036 2.52826 1.7934 4
-0.698712 2.60098 1.79664 4
-0.765784 2.82116 1.78908 8
-3.56727 13.1676 1.0448 6
-3.51979 13.1012 1.0972 28
-3.53062 13.1636 1.14055 36
-3.52792 13.1968 1.16226 30
-3.56392 13.1628 1.18822 31
-3.58879 13.4004 1.19774 30
-3.66162 13.5373 1.21398 33
-3.62531 13.5174 1.23958 36
-3.64059 13.5716 1.26105 33
-3.65541 13.6052 1.28381 17
-3.71559 13.8748 1.29459 33
-3.73908 13.9991 1.31603 34
-3.7868 14.0081 1.3385 36
-3.75489 14.0333 1.36253 31
-3.85011 14.257 1.37818 30
-3.98335 14.8638 1.37827 36
-4.00887 14.9564 1.40139 32
-3.99686 14.8883 1.43105 39
-4.1745 15.6126 1.43129 31
nan nan nan nan
-6.00806 22.3406 1.26556 9
-6.04898 22.5068 1.3007 4
nan nan nan nan
nan nan nan nan
nan nan nan nan
nan nan nan nan
-6.63474 24.8343 1.4564 20
-6.58117 24.5804 1.50206 9
-6.61098 24.6043 1.54623 35
nan nan nan nan
-6.60934 24.544 1.63614 8
-6.10938 23.0377 1.69914 32
-6.24286 23.1475 1.7407 28
-6.23326 23.4353 1.77865 11
-6.21417 23.006 1.82549 28
nan nan nan nan
-6.48096 24.1411 1.90337 23
-6.38104 23.8004 1.9476 12
-6.45671 23.9975 1.99079 29
nan nan nan nan
-6.49329 24.0964 2.07789 9
-6.38383 24.0221 2.11957 10
-6.42682 23.8136 2.16314 29
-5.92384 22.0998 2.23063 29
-5.99303 22.3234 2.31369 23
-6.22829 23.1494 2.40906 10
-6.65564 24.6998 2.52574 9
-5.80753 21.9384 2.74209 5
nan nan nan nan
nan nan nan nan
-6.48883 24.3409 4.61162 10
nan nan nan nan
nan nan nan nan
nan nan nan nan
-0.420345 1.54881 1.24951 1
nan nan nan nan
nan nan nan nan
-0.834212 3.07055 1.20656 3
-0.425343 1.60184 1.64645 4
-0.455587 1.71921 1.66426 4
-0.457345 1.7201 1.69866 4
-0.469623 1.76241 1.71955 4
-0.475991 1.78975 1.73779 4
-0.4888 1.81939 1.74966 4
-0.491578 1.84558 1.75602 3
-0.49867 1.88618 1.76244 4
-0.508048 1.91088 1.76988 4
-0.51897 1.93447 1.77384 4
-0.531112 1.96788 1.77683 4
-0.528769 2.0054 1.77984 4
-0.531078 2.00053 1.78754 3
-0.560055 2.09136 1.78506 3
-0.585124 2.17287 1.78459 3
-0.578401 2.19608 1.78985 4
-0.589764 2.22483 1.79498 3
-0.612402 2.28136 1.79774 3
-0.662148 2.4646 1.78988 4
-0.674314 2.54987 1.79165 4
-0.699839 2.64194 1.79341 4
-0.761566 2.84294 1.78746 8
-3.51353 13.1511 1.04617 9
-3.46888 13.0941 1.09781 42
-3.49737 13.224 1.13665 32
-3.51105 13.32 1.15444 31
-3.52537 13.1938 1.18632 31
-3.53432 13.3839 1.19873 36
-3.60403 13.5114 1.21548 36
-3.56402 13.4769 1.24182 31
-3.55738 13.4491 1.26769 33
-3.58996 13.5503 1.28663 25
-3.66456 13.878 1.29431 31
-3.68635 13.9976 1.31596 33
-3.73644 14.0061 1.33844 36
-3.67912 13.9448 1.36638 35
-3.76947 14.1545 1.38247 31
nan nan nan nan
-3.92979 14.8689 1.40464 35
-3.94485 14.9022 1.43022 17
nan nan nan nan
nan nan nan nan
-5.85062 22.0464 1.27475 28
-6.6064 24.9288 1.2244 6
nan nan nan nan
nan nan nan nan
nan nan nan nan
-6.46401 24.6095 1.4115 24
-6.47796 24.5915 1.46088 19
nan nan nan nan
-6.60236 24.9015 1.5398 11
-6.21687 23.4787 1.60853 6
-6.09017 22.9336 1.65924 28
-6.00362 22.9621 1.69913 36
-6.13503 23.0677 1.74055 34
-6.17679 23.5536 1.77642 25
-6.23422 23.4044 1.82128 36
-6.03579 22.8986 1.86565 3
-6.39576 24.1431 1.90217 34
-6.49465 24.567 1.94451 38
-6.54208 24.6579 1.9891 36
nan nan nan nan
-6.32566 23.8048 2.07557 28
-6.25812 23.8846 2.11746 10
nan nan nan nan
-5.83265 22.0517 2.22876 29
-5.8614 22.1412 2.30962 20
-5.88585 22.1853 2.39049 8
nan nan nan nan
nan nan nan nan
-6.09433 23.1525 3.20028 6
-5.96523 22.7006 3.81325 29
-5.94024 22.5982 4.42104 10
nan nan nan nan
nan nan nan nan
nan nan nan nan
-0.398593 1.48927 1.27971 1
nan nan nan nan
nan nan nan nan
-0.822201 3.06873 1.20762 3
-0.42098 1.60802 1.64529 4
-0.449567 1.72077 1.66416 3
-0.452577 1.72643 1.6977 3
-0.463455 1.76403 1.71945 3
-0.470982 1.79618 1.73697 1
-0.482434 1.82108 1.74956 4
-0.486374 1.85207 1.75526 3
-0.493332 1.89269 1.76172 4
-0.501364 1.91264 1.76977 4
-0.51347 1.94107 1.77315 4
-0.525498 1.97452 1.77616 4
-0.523012 2.01203 1.77919 4
-0.524082 2.00237 1.78743 3
-0.556541 2.10772 1.78342 3
-0.581333 2.18932 1.783 3
-0.573236 2.2077 1.78878 4
-0.584505 2.2365 1.79394 3
-0.609511 2.30274 1.79586 3
-0.656069 2.47652 1.7889 3
-0.666662 2.55702 1.7911 4
-0.700689 2.68294 1.79017 5
-0.757982 2.86968 1.78545 9
-3.47137 13.1777 1.04438 9
-3.46475 13.2654 1.08604 35
-3.46123 13.2748 1.13338 32
-3.46199 13.3225 1.15432 34
-3.50849 13.317 1.1787 30
-3.48629 13.3913 1.19828 29
-3.55427 13.5142 1.21529 30
-3.53206 13.5472 1.23779 30
-3.51795 13.4904 1.26535 32
-3.63225 13.9057 1.26771 43
-3.62487 13.9245 1.29181 29
-3.64873 14.0538 1.31304 33
-3.67353 13.9658 1.34018 36
-3.69322 14.1993 1.35455 34
-3.78846 14.4285 1.37022 0
-3.82271 14.6736 1.38578 31
-3.8791 14.8873 1.40362 33
-3.89405 14.9207 1.4292 37
nan nan nan nan
-4.83973 18.5648 1.35579 10
-5.65095 21.6132 1.2885 14
-6.52815 24.9855 1.22196 29
nan nan nan nan
nan nan nan nan
nan nan nan nan
-6.39434 24.6948 1.40861 30
nan nan nan nan
-5.91458 22.7245 1.53822 9
-5.94892 22.7731 1.57847 13
-6.03263 23.1084 1.61382 36
-5.97211 22.8096 1.66014 14
-5.86849 22.7699 1.70068 17
-5.9479 22.6828 1.7439 20
-6.42249 24.8432 1.76287 5
-5.95816 22.6861 1.82575 25
-5.94828 22.8905 1.86455 3
-5.94116 22.7634 1.90667 0
-5.92105 22.717 1.94767 31
-5.95013 22.7456 1.98888 13
-5.9664 23.1701 2.02893 23
nan nan nan nan
nan nan nan nan
nan nan nan nan
-5.78837 22.2132 2.22891 6
nan nan nan nan
-6.48934 24.8077 2.43466 10
-5.84202 22.2988 2.47143 31
nan nan nan nan
-6.09006 23.4685 3.21425 9
-5.91606 22.8372 3.82123 10
-5.81408 22.436 4.4002 25
nan nan nan nan
nan nan nan nan
nan nan nan nan
-0.391057 1.4819 1.28396 6
nan nan nan nan
-0.779028 2.98208 1.08935 3
nan nan nan nan
-0.416578 1.61419 1.64413 4
-0.443541 1.72232 1.66407 4
-0.446534 1.72799 1.69761 3
-0.457281 1.76562 1.71935 4
-0.464697 1.7978 1.73687 3
-0.476382 1.82266 1.74946 4
-0.479894 1.85375 1.75516 3
-0.489199 1.904 1.76037 4
-0.49716 1.92398 1.76847 4
-0.508271 1.94756 1.77247 4
-0.521097 1.98595 1.77493 4
-0.518456 2.02346 1.77799 4
-0.519567 2.0138 1.78626 3
-0.55204 2.11917 1.78229 3
-0.57493 2.19614 1.78239 3
-0.569236 2.22414 1.78724 4
-0.579172 2.24816 1.7929 3
-0.604373 2.31438 1.79486 4
-0.653672 2.5029 1.78666 3
-0.661459 2.5738 1.78975 4
-0.702505 2.72881 1.78654 5
-0.757237 2.90595 1.78272 12
-3.43032 13.209 1.04224 6
-3.41092 13.2484 1.08732 36
-3.41359 13.2819 1.13296 37
-3.41171 13.32 1.1545 33
-3.46302 13.3237 1.17829 39
-3.43949 13.4033 1.19753 31
-3.51456 13.5555 1.21284 32
-3.48969 13.5787 1.23595 34
-3.50315 13.6283 1.25772 25
-3.58117 13.9086 1.26745 29
-3.5849 13.9709 1.2893 31
-3.60458 14.0858 1.31131 32
nan nan nan nan
-3.67956 14.3524 1.34734 36
nan nan nan nan
-3.72293 14.4981 1.39292 34
-3.77486 14.6975 1.41099 33
-3.84068 14.9293 1.42856 33
-3.95739 15.4472 1.43632 28
-3.98894 15.5227 1.46157 9
nan nan nan nan
nan nan nan nan
-6.43337 24.8874 1.26936 13
nan nan nan nan
nan nan nan nan
-6.34271 24.8525 1.40398 34
-6.32841 24.7232 1.45622 35
nan nan nan nan
nan nan nan nan
-5.8224 22.6258 1.62104 12
-5.85749 22.6947 1.66092 17
-5.7705 22.7176 1.70039 12
-5.87995 22.7469 1.74214 10
-5.84058 22.9227 1.78034 6
-5.92531 22.8859 1.82308 12
-5.86215 22.8869 1.86343 1
-5.84717 22.6948 1.9059 20
-6.14393 23.9144 1.9435 29
-6.19263 24.0154 1.98681 34
-5.88673 23.1956 2.02766 9
-5.9342 22.977 2.07034 8
nan nan nan nan
nan nan nan nan
nan nan nan nan
nan nan nan nan
-5.86826 22.7583 2.39728 20
-5.67167 21.9609 2.46267 9
nan nan nan nan
