# .PCD v0.7 - Point Cloud Data file format
VERSION 0.7
FIELDS x y z intensity
SIZE 4 4 4 4
TYPE F F F F
COUNT 1 1 1 1
WIDTH 1694
HEIGHT 1
VIEWPOINT 0 0 0 1 0 0 0
POINTS 1694
DATA ascii
-9.38057 -9.57182 1.51285 5
-9.37132 -9.55531 1.56017 14
-9.40045 -9.56979 1.58251 9
-9.36493 -9.59852 1.60608 13
-9.40004 -9.579 1.62908 14
-9.39024 -9.61733 1.65197 12
-9.41112 -9.59773 1.67532 14
-9.40734 -9.59534 1.69883 13
-9.40716 -9.60332 1.72213 10
-9.41864 -9.59977 1.74542 14
-9.42494 -9.59425 1.77115 14
-9.38726 -9.61759 1.79245 13
-9.41703 -9.59584 1.81571 14
-9.39816 -9.62162 1.83911 17
-9.41014 -9.59627 1.86258 17
-9.40963 -9.59722 1.88598 17
-9.40222 -9.59783 1.90942 16
-9.40815 -9.58526 1.93281 17
-9.40429 -9.59619 1.95619 14
-9.39338 -9.59992 1.9796 16
-9.39428 -9.59898 2.00298 14
-9.38859 -9.61138 2.02639 13
-9.4274 -9.57323 2.04968 12
-9.39165 -9.61528 2.07319 13
-9.41919 -9.58119 2.09648 13
-9.41164 -9.58836 2.12222 13
-9.41274 -9.60101 2.14339 13
-9.39992 -9.60615 2.16675 14
-9.3971 -9.6014 2.19007 13
-9.39634 -9.61551 2.21363 14
-9.44197 -9.58421 2.23711 14
-9.39727 -9.62059 2.26053 14
-9.42628 -9.58459 2.28376 14
-9.38832 -9.6211 2.30725 14
-9.41586 -9.60038 2.33071 15
-9.40113 -9.60694 2.35401 14
-9.39977 -9.60031 2.37726 14
-9.3936 -9.61226 2.40082 14
-9.43198 -9.5736 2.42412 12
-9.39058 -9.61329 2.44761 20
-9.42285 -9.58064 2.47093 12
-9.38118 -9.61333 2.49422 13
-9.3952 -9.59708 2.54094 23
-9.39938 -9.611 2.58836 13
-9.39422 -9.6132 2.63517 20
-9.39483 -9.6235 2.68247 14
-9.43652 -9.58355 2.84681 14
-9.41921 -9.61202 3.08285 13
-4.37455 -4.4641 2.67281 59
-9.40936 -9.61152 3.80477 36
-6.8921 -7.05359 3.75157 12
-5.41831 -5.49483 3.71859 11
-4.27068 -4.36769 3.75482 34
-1.64281 -1.66614 0.982009 8
-1.70895 -1.74188 1.19943 9
-1.84299 -1.86966 1.31198 3
-2.60131 -2.65503 1.18928 6
-5.49414 -5.57092 0.538515 3
-6.2258 -6.3035 0.566034 3
-6.97353 -7.06943 0.586095 3
-7.6201 -7.7289 0.624916 3
-9.47692 -9.5968 0.456013 4
-9.02255 -9.17622 0.640568 3
-9.43539 -9.54733 0.652496 3
-9.47957 -9.61277 0.727719 5
-4.38244 -4.44409 1.44939 38
-4.37683 -4.45223 1.47107 56
-4.37766 -4.46073 1.49234 30
-4.39169 -4.4425 1.51438 44
-4.38834 -4.44829 1.53608 56
-4.386 -4.45979 1.55743 22
-9.4397 -9.60885 1.08945 14
-9.46104 -9.57108 1.1349 12
-9.427 -9.55287 1.18422 10
-4.39665 -4.47819 1.64345 6
-4.44375 -4.5244 1.66171 6
-4.42748 -4.4861 1.68572 6
-4.43538 -4.49398 1.70713 6
-4.39714 -4.47691 1.73082 6
-4.45027 -4.53082 1.74958 6
-9.44548 -9.57106 1.51112 5
-9.4397 -9.55812 1.55843 14
-9.47243 -9.57602 1.58069 9
-9.43689 -9.605 1.60437 11
-9.47205 -9.58525 1.62746 10
-9.46229 -9.62371 1.65045 13
-9.48317 -9.60397 1.67389 13
-9.47938 -9.6016 1.6975 13
-9.47921 -9.6096 1.7209 13
-9.49072 -9.60597 1.74428 13
-9.49351 -9.59685 1.7702 12
-9.45581 -9.62043 1.79159 13
-9.48209 -9.59493 1.815 12
-9.46323 -9.62084 1.83848 13
-9.47518 -9.5954 1.86202 13
-9.46765 -9.58924 1.88559 13
-9.46374 -9.59344 1.90906 13
-9.46966 -9.58082 1.93252 13
-9.46231 -9.58823 1.95599 13
-9.4549 -9.59557 1.97945 14
-9.45932 -9.59818 2.0029 14
-9.45364 -9.61063 2.02638 14
-9.49595 -9.57578 2.04977 14
-9.46021 -9.6181 2.07337 13
-9.49127 -9.58734 2.09678 14
-9.47669 -9.58745 2.12254 13
-9.47781 -9.60011 2.14377 14
-9.46498 -9.60533 2.16722 13
-9.45513 -9.59346 2.19048 12
-9.45441 -9.60759 2.2141 12
-9.50001 -9.57604 2.23764 11
-9.45533 -9.61267 2.26112 13
-9.48079 -9.57293 2.28431 12
-9.44989 -9.61678 2.30808 13
-9.48094 -9.59945 2.33173 12
-9.46269 -9.60254 2.35498 13
-9.46482 -9.59946 2.37844 13
-9.46218 -9.61501 2.40222 13
-9.50054 -9.57609 2.4256 14
-9.45913 -9.61607 2.44919 12
-9.49493 -9.58673 2.47276 14
-9.44972 -9.61615 2.49597 13
-9.46725 -9.60334 2.54307 14
-9.47146 -9.61725 2.59067 14
-9.46277 -9.61594 2.63744 13
-9.4599 -9.62268 2.68467 13
-9.50508 -9.58596 2.84987 12
-9.47726 -9.60388 3.08557 13
-4.37268 -4.43109 2.67009 61
-9.48818 -9.62441 3.81334 37
-6.91676 -7.02942 3.75151 11
-5.41691 -5.45503 3.712 8
-4.27587 -4.34241 3.75063 33
-1.65823 -1.67016 0.975914 8
-1.72832 -1.74942 1.19307 8
-1.8665 -1.88037 1.30551 3
-2.60365 -2.63902 1.19141 6
-5.50656 -5.5448 0.540315 4
-6.24769 -6.2818 0.565978 3
-7.00855 -7.05564 0.583905 3
-9.51459 -9.58032 0.287299 3
-9.5418 -9.59543 0.450784 4
-9.06845 -9.15887 0.638376 3
-9.46859 -9.5144 0.652411 3
-9.55858 -9.62561 0.721503 4
-4.38463 -4.41389 1.45113 40
-4.38881 -4.43341 1.47146 56
-4.38266 -4.43482 1.49353 29
-4.3966 -4.41656 1.51552 46
-4.39404 -4.42159 1.53717 54
-4.37694 -4.41967 1.55989 16
-9.52577 -9.62906 1.08428 13
-9.53305 -9.57695 1.13126 20
-9.49708 -9.5537 1.18108 8
-4.40171 -4.45219 1.64427 6
-4.43841 -4.48759 1.66329 6
-4.42902 -4.45647 1.68669 5
-4.43772 -4.46354 1.70803 6
-4.40569 -4.45445 1.73122 6
-4.44847 -4.49752 1.75055 6
-9.50344 -9.56287 1.50975 5
-9.50821 -9.56057 1.55668 12
-9.53751 -9.57479 1.57919 14
-9.50197 -9.604 1.60295 14
-9.54069 -9.58757 1.62597 13
-9.53098 -9.62615 1.64905 13
-9.54832 -9.60274 1.6727 14
-9.54453 -9.60038 1.69639 13
-9.54438 -9.60839 1.71987 14
-9.55406 -9.59948 1.74342 13
-9.56222 -9.59908 1.76925 13
-9.528 -9.62646 1.79064 14
-9.55078 -9.59721 1.81421 14
-9.53897 -9.63038 1.83766 14
-9.55442 -9.60838 1.86126 14
-9.55039 -9.60579 1.88489 14
-9.54649 -9.61002 1.90848 14
-9.55056 -9.59212 1.93208 13
-9.54153 -9.60125 1.95567 13
-9.5306 -9.6051 1.97926 14
-9.52799 -9.60059 2.00281 13
-9.52584 -9.61664 2.02639 12
-9.56111 -9.57443 2.04984 13
-9.52538 -9.617 2.07352 13
-9.55644 -9.58603 2.097 12
-9.54704 -9.58809 2.12289 14
-9.54652 -9.60242 2.14421 12
-9.53367 -9.60772 2.16774 13
-9.53084 -9.60296 2.19123 17
-9.53013 -9.61712 2.21495 14
-9.57224 -9.58173 2.23851 17
-9.52753 -9.61868 2.26209 12
-9.56004 -9.58579 2.28558 20
-9.52208 -9.62282 2.30924 13
-9.54965 -9.60173 2.33286 3
-9.5349 -9.60846 2.35633 15
-9.53351 -9.60181 2.37975 12
-9.53089 -9.6174 2.40362 13
-9.57277 -9.58176 2.42724 12
-9.53134 -9.62204 2.45092 13
-9.56716 -9.59244 2.47459 13
-9.52191 -9.62216 2.4979 13
-9.54298 -9.61276 2.54539 13
-9.54722 -9.62666 2.5932 13
-9.542 -9.62895 2.64041 13
-9.53561 -9.63216 2.68762 12
-9.59493 -9.6092 2.8548 14
-9.53537 -9.59544 3.08829 12
-4.37414 -4.40167 2.66791 56
-9.55672 -9.62632 3.81991 37
-6.95866 -7.02266 3.75583 11
-5.42566 -5.42567 3.70868 10
-4.28433 -4.32057 3.74782 35
-1.67369 -1.6741 0.969818 8
-1.73437 -1.74341 1.19305 8
-1.91403 -1.91483 1.29001 3
-2.60591 -2.62303 1.19355 6
-5.52233 -5.52213 0.541188 3
-6.26601 -6.25653 0.566724 3
-7.03655 -7.0347 0.583132 3
-7.71498 -7.71154 0.617816 3
-9.60327 -9.59021 0.446123 4
-9.06518 -9.09202 0.643574 3
-9.50167 -9.48136 0.652323 3
-9.6202 -9.62041 0.717641 3
-4.38314 -4.38021 1.45331 48
-4.38663 -4.40046 1.47356 61
-4.3805 -4.40187 1.49554 28
-4.39785 -4.38712 1.51705 46
-4.39255 -4.38786 1.539 50
-4.39232 -4.40439 1.55985 11
-9.60506 -9.64173 1.07978 20
-9.59463 -9.57186 1.12859 14
-9.56729 -9.55413 1.17793 6
-4.40311 -4.42267 1.64539 6
-4.44698 -4.46502 1.66379 6
-4.43394 -4.4304 1.68741 6
-4.44343 -4.43667 1.70869 5
-4.4071 -4.4249 1.73205 6
-4.45002 -4.46783 1.75131 5
-9.57207 -9.56499 1.50783 6
-9.57499 -9.55746 1.5551 14
-9.6027 -9.57321 1.57769 9
-9.56716 -9.60266 1.60152 14
-9.60946 -9.58953 1.62448 11
-9.60686 -9.63531 1.64739 13
-9.62065 -9.60824 1.67127 13
-9.61685 -9.60589 1.69505 17
-9.62026 -9.61745 1.71852 12
-9.63871 -9.61384 1.74198 15
-9.6346 -9.60448 1.76821 15
-9.59683 -9.62856 1.78976 14
-9.63022 -9.60973 1.81321 14
-9.61137 -9.63596 1.83689 17
-9.62325 -9.61033 1.86064 13
-9.61922 -9.60774 1.88436 12
-9.61532 -9.612 1.90804 12
-9.62105 -9.59236 1.93173 13
-9.61388 -9.60677 1.95539 14
-9.60647 -9.61422 1.97906 14
-9.60033 -9.60617 2.00272 17
-9.60173 -9.6258 2.02641 17
-9.637 -9.58332 2.04995 20
-9.60832 -9.63326 2.07379 14
-9.63588 -9.59849 2.09736 20
-9.63169 -9.60245 2.12341 13
-9.62243 -9.61144 2.14475 13
-9.6131 -9.62035 2.16844 15
-9.61026 -9.6156 2.19204 13
-9.60957 -9.62979 2.21588 14
-9.65171 -9.59408 2.23955 11
-9.60694 -9.63138 2.26325 14
-9.63595 -9.59469 2.28674 12
-9.59964 -9.63033 2.31051 13
-9.62557 -9.61071 2.33424 13
-9.61079 -9.61753 2.35781 14
-9.61293 -9.6144 2.38147 12
-9.61032 -9.63004 2.40545 14
-9.65224 -9.59409 2.42919 13
-9.61075 -9.6347 2.45299 12
-9.64664 -9.60481 2.47676 14
-9.60299 -9.63319 2.50019 13
-9.61889 -9.62176 2.5477 14
-9.62316 -9.63566 2.59573 13
-9.61438 -9.63446 2.64291 12
-9.60967 -9.63602 2.69031 12
-9.66029 -9.60729 2.85753 11
-9.61821 -9.61138 3.09381 17
-4.38951 -4.38635 2.66787 49
-9.61489 -9.61735 3.82448 36
-6.99365 -7.00871 3.75839 11
-5.46542 -5.42726 3.71517 13
-4.28325 -4.28776 3.74085 38
-1.67947 -1.6683 0.969802 8
-1.74712 -1.74408 1.18986 6
-1.97555 -1.96259 1.26935 3
-2.61501 -2.61396 1.19353 5
-5.54498 -5.50635 0.540211 3
-6.28773 -6.23468 0.566664 3
-7.05748 -7.00667 0.583773 3
-7.73558 -7.68382 0.618382 3
nan nan nan nan
-9.09326 -9.05687 0.644017 3
-9.53463 -9.4482 0.652231 3
-9.68896 -9.62191 0.712832 3
-4.38978 -4.35942 1.45416 56
-4.40194 -4.38514 1.47351 58
-4.38875 -4.37954 1.49632 27
-4.39895 -4.35773 1.51858 46
-4.39921 -4.36703 1.53971 46
-9.64978 -9.60639 1.02921 4
-9.65627 -9.62579 1.07799 14
-9.69527 -9.60508 1.12236 17
-9.6291 -9.55571 1.1751 5
-4.41143 -4.40024 1.64592 8
-4.45544 -4.44244 1.66429 5
-4.43873 -4.40436 1.68813 6
-4.4467 -4.41215 1.70936 5
-4.41188 -4.39893 1.73266 8
-4.45495 -4.44171 1.75187 5
-9.65856 -9.58435 1.50498 6
-9.65106 -9.57311 1.55285 12
-9.67865 -9.58185 1.5757 9
-9.65724 -9.62567 1.59906 13
-9.67836 -9.59112 1.62299 11
-9.68646 -9.64758 1.6456 14
-9.68959 -9.60983 1.66995 12
-9.69998 -9.62158 1.69337 13
-9.68213 -9.61201 1.71759 10
-9.69202 -9.60986 1.74122 13
-9.70357 -9.60598 1.76725 14
-9.67995 -9.64442 1.78857 13
-9.68856 -9.6007 1.81263 13
-9.68746 -9.64468 1.83607 14
-9.68867 -9.60838 1.86007 14
-9.69883 -9.6199 1.8837 13
-9.67719 -9.60658 1.90767 14
-9.68497 -9.59898 1.93138 14
-9.68639 -9.6119 1.9551 12
-9.68608 -9.62645 1.97885 14
-9.68701 -9.62546 2.00262 13
-9.70616 -9.66277 2.02648 14
-9.69884 -9.57774 2.04999 13
-9.66668 -9.62436 2.07388 13
-9.72264 -9.61755 2.09779 13
-9.67434 -9.58791 2.12351 12
-9.69142 -9.613 2.14517 13
-9.67855 -9.61845 2.1689 13
-9.68279 -9.62074 2.19272 12
-9.68212 -9.63496 2.21665 14
-9.70649 -9.58141 2.23997 14
-9.6653 -9.62247 2.26383 12
-9.69072 -9.58208 2.28727 14
-9.6811 -9.64784 2.312 13
-9.69102 -9.60872 2.33524 14
-9.69041 -9.62971 2.35942 14
-9.69256 -9.62656 2.38319 14
-9.68642 -9.63871 2.40714 13
-9.71058 -9.58491 2.43019 14
-9.66559 -9.62224 2.45389 14
-9.70499 -9.59566 2.47789 12
-9.67737 -9.6436 2.5023 14
-9.69143 -9.62683 2.54982 13
-9.6851 -9.63016 2.59738 12
-9.67629 -9.62901 2.6447 13
-9.69113 -9.65342 2.69376 14
-9.75061 -9.62959 2.86245 14
-9.70482 -9.63036 3.09973 13
-4.38365 -4.34997 2.66462 41
-9.69069 -9.62556 3.83237 36
-7.02513 -6.99113 3.76008 11
-5.47399 -5.3978 3.71185 29
-4.28731 -4.26331 3.73666 40
-1.69174 -1.66889 0.965732 8
-1.76663 -1.75135 1.1835 8
-2.03054 -2.00316 1.25127 4
-2.61714 -2.59798 1.19566 5
-5.55709 -5.48013 0.542005 3
-6.30938 -6.21276 0.566602 3
-7.09239 -6.99248 0.581576 3
-7.73403 -7.62897 0.623363 3
-7.19589 -7.08688 0.845464 3
-9.13181 -9.03213 0.642873 3
-9.58521 -9.43236 0.649625 3
-4.38282 -4.31937 1.42367 3
-4.38012 -4.31962 1.45723 56
-4.38885 -4.34176 1.47689 53
-4.38273 -4.34319 1.49874 26
-4.39635 -4.32489 1.5205 38
-4.4002 -4.33767 1.54117 40
-9.71157 -9.60075 1.02625 4
-9.75004 -9.65172 1.07212 14
-9.73224 -9.57472 1.12194 14
-9.69789 -9.55711 1.17195 5
-4.41964 -4.37781 1.64645 8
-4.45671 -4.41284 1.66533 6
-4.44695 -4.38184 1.68859 5
-4.45138 -4.3861 1.71003 5
-4.42009 -4.37649 1.73306 8
-4.4562 -4.41209 1.75263 6
-9.69905 -9.55762 1.50452 8
-9.71098 -9.56224 1.55159 17
-9.74053 -9.57606 1.57435 10
-9.70496 -9.60599 1.59837 14
-9.74738 -9.59235 1.6215 10
-9.74493 -9.63832 1.64458 17
-9.76221 -9.61456 1.66851 5
-9.75485 -9.60873 1.69259 17
-9.75831 -9.62029 1.71623 12
-9.77347 -9.61988 1.73987 12
-9.77625 -9.61061 1.7662 11
-9.74553 -9.64222 1.78776 13
-9.76833 -9.61241 1.81162 12
-9.75306 -9.64245 1.83542 12
-9.76487 -9.61663 1.85935 12
-9.76083 -9.61407 1.88325 11
-9.75693 -9.61838 1.90711 12
-9.75571 -9.5985 1.93102 11
-9.75193 -9.60962 1.95484 12
-9.74097 -9.61366 1.97871 12
-9.73478 -9.60564 2.00253 13
-9.73626 -9.62532 2.02638 12
nan nan nan nan
nan nan nan nan
-9.77042 -9.59757 2.09783 14
-9.76288 -9.60499 2.12407 13
-9.75698 -9.61069 2.14555 12
-9.74766 -9.61972 2.16941 13
-9.74479 -9.61497 2.19318 12
-9.74415 -9.62921 2.21718 12
-9.78628 -9.59297 2.241 12
-9.74149 -9.63086 2.26488 12
-9.77048 -9.59373 2.28853 12
-9.73605 -9.63508 2.31259 12
-9.76013 -9.60989 2.33636 12
-9.74533 -9.61688 2.36011 13
-9.74747 -9.61371 2.38393 13
-9.74491 -9.62941 2.40808 10
-9.78681 -9.59293 2.43197 13
-9.74888 -9.63762 2.45611 10
-9.78479 -9.60723 2.48006 13
-9.73586 -9.63435 2.50349 13
-9.76057 -9.62801 2.55172 11
-9.76846 -9.64539 2.60033 12
-9.75605 -9.6408 2.64767 9
-9.74965 -9.64409 2.69543 12
-9.8127 -9.62343 2.86487 10
-9.74908 -9.60688 3.10083 12
-4.38113 -4.31717 2.6619 39
-9.76667 -9.63335 3.84026 32
-7.05308 -6.96996 3.76088 10
-5.4894 -5.37518 3.7107 17
-4.28174 -4.22799 3.7283 40
-1.70403 -1.66941 0.961662 8
-1.77945 -1.75186 1.18031 6
-2.07202 -2.02987 1.23835 4
-2.62615 -2.58886 1.19563 5
-4.42865 -4.33595 0.844234 4
-6.32742 -6.18731 0.567341 3
-4.40807 -4.31497 1.12476 8
nan nan nan nan
-9.86628 -9.64909 0.419543 3
-9.14902 -8.98633 0.644894 3
-4.4046 -4.30629 1.38526 3
-4.40494 -4.31104 1.42268 37
-4.41293 -4.32175 1.45496 50
-4.40395 -4.32643 1.47685 30
-4.39784 -4.32789 1.49869 37
-4.39714 -4.2956 1.52203 38
-4.39748 -4.30486 1.543 38
-9.76989 -9.59129 1.02365 4
nan nan nan nan
-9.82621 -9.60003 1.11635 10
nan nan nan nan
-4.42776 -4.35538 1.64699 8
-4.46137 -4.38677 1.6661 5
-4.45149 -4.35582 1.68931 6
-4.45594 -4.36007 1.71069 5
-4.42464 -4.35054 1.73367 8
-4.46443 -4.38952 1.75299 5
-9.78587 -9.57616 1.50167 8
-9.78714 -9.57024 1.5495 11
-4.38115 -4.27763 1.81169 5
-9.79188 -9.62462 1.59604 12
nan nan nan nan
-9.832 -9.65679 1.64252 12
-4.39041 -4.29104 1.85382 61
-9.83833 -9.62358 1.6909 11
-4.37005 -4.27703 1.87567 11
nan nan nan nan
nan nan nan nan
-9.82191 -9.6502 1.78672 23
nan nan nan nan
-9.83303 -9.65388 1.83452 14
-4.37016 -4.27098 1.93937 56
-9.84077 -9.62541 1.88258 11
-4.36746 -4.27424 1.96058 22
-9.82849 -9.60283 1.93062 10
-9.82829 -9.61749 1.95453 8
-9.8316 -9.6356 1.97846 13
-9.82539 -9.62758 2.00242 13
-9.8269 -9.64731 2.02642 17
-4.41167 -4.2933 2.02432 13
-4.40441 -4.32227 2.03513 6
-9.86828 -9.62626 2.09835 5
-9.82138 -9.59531 2.12428 8
-9.83336 -9.61852 2.14607 6
-9.82046 -9.62412 2.16998 13
-9.8283 -9.62987 2.19405 12
-9.82768 -9.64414 2.21818 12
-4.39759 -4.27783 2.10941 31
nan nan nan nan
nan nan nan nan
-9.82311 -9.65359 2.31419 6
nan nan nan nan
-9.83241 -9.63526 2.36196 10
-9.83455 -9.63206 2.38592 12
-9.832 -9.64782 2.4102 11
-4.38549 -4.26579 2.19409 39
-4.37023 -4.2882 2.20493 30
nan nan nan nan
-9.82647 -9.65633 2.50631 4
-9.84055 -9.63931 2.55423 8
nan nan nan nan
-4.36511 -4.28143 2.28965 39
-9.83671 -9.66247 2.69912 3
-4.37364 -4.25815 2.38473 10
-9.84317 -9.63201 3.10755 4
-4.38199 -4.28792 2.65971 39
-9.80032 -9.59913 3.84016 23
-7.09502 -6.96247 3.76519 11
-5.50822 -5.35592 3.71064 17
-4.28627 -4.20286 3.7241 36
-1.70979 -1.6635 0.961644 9
-1.79569 -1.75561 1.17554 6
-2.10678 -2.04958 1.228 6
-2.62465 -2.56948 1.19885 4
-4.42257 -4.29995 0.849735 86
-4.41645 -4.28755 1.00633 11
-4.40177 -4.27889 1.12897 58
-4.41321 -4.29271 1.22324 3
-4.40501 -4.27854 1.30092 46
-4.39247 -4.28557 1.3553 3
-4.391 -4.26321 1.38923 70
-4.40923 -4.28525 1.42405 44
-4.41725 -4.29593 1.45625 54
-4.41899 -4.31106 1.4768 30
-4.40219 -4.30209 1.49988 31
-4.40135 -4.26983 1.52316 43
-4.39815 -4.27561 1.54446 37
-9.83539 -9.5885 1.02033 4
nan nan nan nan
-4.40661 -4.27318 1.60832 52
-4.40678 -4.28224 1.62933 8
-4.41077 -4.30853 1.64954 8
-4.46592 -4.36073 1.66687 6
-4.43443 -4.30894 1.69154 7
-4.45679 -4.33058 1.71159 9
-4.43263 -4.32811 1.73406 8
-4.46898 -4.36346 1.75355 5
-4.39143 -4.26537 1.77978 22
-4.37129 -4.24428 1.80203 12
-4.4068 -4.27276 1.81117 82
nan nan nan nan
nan nan nan nan
nan nan nan nan
-4.37668 -4.24783 1.85476 85
-4.38336 -4.25579 1.86512 35
-4.38494 -4.26176 1.87562 58
-4.38093 -4.25189 1.88641 28
-4.41922 -4.28453 1.89719 67
-9.89488 -9.65427 1.78575 6
nan nan nan nan
-9.90246 -9.6544 1.83381 4
-4.41014 -4.28009 1.93895 93
-4.39162 -4.26356 1.94984 41
-4.39668 -4.27291 1.9604 79
-4.40408 -4.27261 1.971 51
nan nan nan nan
-4.37518 -4.25937 1.99237 13
nan nan nan nan
nan nan nan nan
-4.40147 -4.25354 2.02415 66
-4.3622 -4.25101 2.03467 62
nan nan nan nan
nan nan nan nan
nan nan nan nan
-4.38574 -4.26939 2.0773 35
-4.39995 -4.28318 2.0882 6
nan nan nan nan
-4.4089 -4.25898 2.10928 61
nan nan nan nan
nan nan nan nan
-4.39059 -4.28437 2.14137 88
nan nan nan nan
-4.37754 -4.26116 2.16199 71
-4.39955 -4.28104 2.17342 11
-4.38405 -4.27489 2.18364 6
-4.37521 -4.22613 2.19294 49
-4.3816 -4.26943 2.20472 67
-4.39195 -4.25117 2.21511 54
-4.39249 -4.28597 2.22669 69
-4.38715 -4.26876 2.24736 82
-4.39061 -4.27803 2.26904 80
-4.38361 -4.26964 2.28984 78
-4.39785 -4.28945 2.31235 88
-4.38849 -4.24284 2.38468 68
nan nan nan nan
-4.3827 -4.25871 2.65753 68
-9.78056 -9.51298 3.83008 11
-7.12641 -6.94446 3.76687 10
-5.51292 -5.32303 3.70623 20
-4.28723 -4.17439 3.71852 40
-1.7254 -1.66709 0.955545 9
-1.81538 -1.76257 1.16917 6
-2.14517 -2.07243 1.21637 11
-2.63707 -2.56374 1.19774 4
-4.49401 -4.33919 0.834895 40
-4.44909 -4.28929 1.00226 56
-4.45224 -4.29792 1.12183 88
-4.44596 -4.29455 1.22003 58
-4.46636 -4.30799 1.29344 53
-4.4038 -4.26679 1.35578 85
-4.51689 -4.35487 1.37361 52
-4.44561 -4.29061 1.42117 87
-4.43935 -4.28743 1.45531 77
-4.3982 -4.26098 1.48103 72
-4.39211 -4.26244 1.5027 57
-4.39826 -4.23716 1.52507 51
-4.40226 -4.24986 1.54553 67
-4.41105 -4.27167 1.56536 68
-4.46928 -4.33547 1.58197 45
-4.39633 -4.23356 1.61053 84
-4.39295 -4.23912 1.63173 79
-4.41501 -4.2827 1.65035 43
-4.47392 -4.33819 1.66736 74
-4.42428 -4.26917 1.69327 56
-4.42873 -4.27339 1.71437 74
-4.40106 -4.26743 1.73685 79
-4.39445 -4.26096 1.75853 74
-4.39909 -4.24309 1.7801 56
-4.40765 -4.24982 1.80098 71
-4.42168 -4.25736 1.81112 72
-4.39267 -4.25904 1.82241 76
-4.42273 -4.26426 1.83229 69
-4.41172 -4.27593 1.84299 89
-4.43103 -4.27072 1.85336 61
-4.42336 -4.26477 1.86427 49
-4.41057 -4.25685 1.87526 87
-4.41373 -4.25393 1.88588 58
-4.41613 -4.25175 1.89758 66
-4.39494 -4.25948 1.90735 73
-4.40975 -4.25149 1.91786 64
-4.40659 -4.26921 1.9284 64
-4.41066 -4.25079 1.93912 63
-4.40288 -4.24474 1.94984 66
-4.40797 -4.25407 1.96039 68
-4.41536 -4.25375 1.97098 67
-4.4081 -4.25415 1.98164 68
-4.42238 -4.27534 1.99224 76
-4.43315 -4.28571 2.00291 76
-4.42142 -4.2833 2.0136 95
-4.44874 -4.26933 2.02425 77
-4.42729 -4.28446 2.03499 93
-4.42993 -4.26011 2.04553 93
-4.42259 -4.26044 2.05723 77
-4.41597 -4.25998 2.06678 94
-4.40781 -4.26101 2.07738 74
-4.41128 -4.26432 2.08808 74
-4.41099 -4.27145 2.09881 94
-4.42735 -4.24702 2.10932 75
-4.40513 -4.26273 2.11993 93
-4.41915 -4.24798 2.13052 94
-4.40552 -4.26901 2.14132 80
-4.41578 -4.25804 2.15193 90
-4.40318 -4.25627 2.16233 76
-4.41088 -4.26218 2.17323 75
-4.41333 -4.27345 2.18418 96
-4.42599 -4.24545 2.19446 85
-4.40725 -4.26453 2.20517 93
-4.42838 -4.25659 2.21611 93
-4.40384 -4.26713 2.22646 94
-4.40563 -4.25688 2.24751 94
-4.40912 -4.26614 2.26921 89
-4.40568 -4.26126 2.29027 94
-4.39847 -4.26017 2.31129 94
-4.41409 -4.23786 2.38558 81
-4.3941 -4.24053 2.49132 94
-4.38326 -4.22956 2.65534 53
-9.78171 -9.44773 3.82399 10
-7.14716 -6.91605 3.76592 11
-5.52803 -5.3003 3.70508 20
-4.29841 -4.15599 3.71709 39
-1.73445 -1.66427 0.953499 9
-1.82148 -1.75626 1.16915 6
-2.13839 -2.0516 1.2215 20
nan nan nan nan
-4.46653 -4.28269 0.84594 98
-4.41766 -4.22939 1.01267 75
-4.44573 -4.26184 1.12603 94
-4.43941 -4.25844 1.22377 54
-4.44546 -4.25805 1.2991 94
-4.4258 -4.25831 1.35468 61
-4.44216 -4.25314 1.38612 70
-4.43897 -4.25442 1.42396 58
-4.42191 -4.24091 1.45927 69
-4.41661 -4.24908 1.48055 63
-4.42488 -4.26439 1.5006 62
-4.43099 -4.23904 1.52306 63
-4.42065 -4.23794 1.54511 60
-4.42232 -4.25282 1.56567 62
-4.42685 -4.26452 1.58736 31
-4.43989 -4.2458 1.6079 56
-4.42931 -4.2445 1.62985 76
-4.41912 -4.25689 1.65117 56
-4.42064 -4.25681 1.67246 58
-4.42473 -4.23989 1.69423 82
-4.41836 -4.23373 1.71597 71
-4.40872 -4.24513 1.73724 77
-4.41648 -4.25253 1.75808 94
-4.42107 -4.23464 1.77969 75
-4.42245 -4.23442 1.80093 94
-4.4365 -4.24191 1.81107 81
-4.4147 -4.25062 1.82207 93
-4.43035 -4.24189 1.83252 63
-4.43021 -4.26398 1.84281 79
-4.43147 -4.2414 1.8538 39
-4.43099 -4.24239 1.86445 73
-4.429 -4.2449 1.8751 58
-4.42855 -4.2385 1.88584 95
-4.43094 -4.23632 1.89753 77
-4.41337 -4.24759 1.90723 93
-4.42817 -4.23953 1.91775 14
-4.42506 -4.25728 1.92829 71
-4.43268 -4.24229 1.93896 41
-4.4321 -4.24318 1.94961 84
-4.43361 -4.24905 1.96023 40
-4.43741 -4.24523 1.97087 84
-4.43736 -4.25257 1.98152 76
-4.43006 -4.25296 1.99221 71
-4.43725 -4.25983 2.00286 82
-4.43995 -4.27131 2.01356 76
-4.45276 -4.24342 2.02415 84
-4.43501 -4.26205 2.03489 73
-4.45201 -4.25153 2.04555 72
-4.44105 -4.24844 2.05722 77
-4.43803 -4.25146 2.06683 69
-4.43348 -4.25598 2.07751 85
-4.42975 -4.25236 2.0881 62
-4.43308 -4.26295 2.09892 95
-4.453 -4.24189 2.10953 94
-4.42719 -4.25426 2.12007 56
-4.44119 -4.23943 2.13068 66
-4.4276 -4.26054 2.1415 67
-4.43423 -4.24606 2.15201 33
-4.42162 -4.24433 2.16241 73
-4.42934 -4.25021 2.17332 83
-4.43543 -4.26494 2.18443 83
-4.4444 -4.23341 2.19457 86
-4.42572 -4.25258 2.20528 91
-4.45045 -4.248 2.21641 82
-4.42232 -4.25519 2.22659 87
-4.42768 -4.24838 2.24787 83
-4.4312 -4.25763 2.2696 94
-4.42414 -4.2493 2.29045 78
-4.42052 -4.2517 2.31175 94
-4.44331 -4.23619 2.38678 67
-4.41609 -4.23204 2.49207 69
-4.43033 -4.24516 2.66011 85
-9.82544 -9.42375 3.82588 13
-7.18199 -6.90123 3.76847 17
-5.55012 -5.28427 3.7061 24
-4.29218 -4.12093 3.70873 33
-1.74379 -1.6611 0.951451 8
-1.84126 -1.76304 1.16279 6
-2.142 -2.04082 1.22277 11
-4.45377 -4.26661 0.64681 4
-4.48139 -4.26712 0.84589 90
-4.4824 -4.26162 1.00136 93
-4.47487 -4.25999 1.12315 93
-4.47216 -4.26006 1.22056 93
-4.46819 -4.24861 1.29791 34
-4.45139 -4.25317 1.35304 90
-4.46416 -4.24449 1.38506 35
-4.46458 -4.24922 1.42249 87
-4.45108 -4.23921 1.45744 51
-4.44219 -4.24398 1.47922 39
-4.44691 -4.25583 1.49973 90
-4.46019 -4.23731 1.52144 35
-4.44983 -4.23626 1.54356 91
-4.44793 -4.2477 1.56455 49
-4.4525 -4.2594 1.58629 46
-4.46551 -4.24061 1.60688 92
-4.45493 -4.23935 1.62888 94
-4.44476 -4.25181 1.65026 93
-4.45351 -4.25861 1.67106 95
-4.46118 -4.2451 1.69266 93
-4.45119 -4.23552 1.71474 93
-4.44516 -4.25043 1.73588 87
-4.44935 -4.25435 1.75702 77
-4.45029 -4.23297 1.7789 88
-4.45167 -4.23274 1.80022 73
-4.46288 -4.23596 1.81055 75
-4.43673 -4.2421 1.82172 73
-4.44874 -4.22985 1.83233 38
-4.44505 -4.2485 1.84276 65
-4.44985 -4.22936 1.85363 64
-4.44577 -4.22691 1.8644 67
-4.45103 -4.23632 1.87484 76
-4.45418 -4.23336 1.8855 59
-4.46093 -4.23382 1.89713 82
-4.44624 -4.24943 1.90678 93
-4.46106 -4.24127 1.91734 29
-4.45798 -4.25907 1.92793 94
-4.45832 -4.23714 1.93875 56
-4.45413 -4.23458 1.94947 32
-4.45565 -4.24044 1.96011 52
-4.45582 -4.23316 1.9708 38
-4.45217 -4.23706 1.98147 42
-4.44849 -4.24092 1.99215 51
-4.45209 -4.24432 2.00281 41
-4.45845 -4.25924 2.01352 42
-4.47118 -4.2313 2.02412 40
-4.44986 -4.24654 2.03484 55
-4.46682 -4.23596 2.0455 41
-4.45948 -4.23635 2.05722 46
-4.45284 -4.23594 2.06678 46
-4.44831 -4.24048 2.07746 39
-4.45181 -4.24377 2.08819 39
-4.45156 -4.2509 2.09895 50
-4.46779 -4.22632 2.10948 51
-4.44563 -4.24223 2.12012 56
-4.45959 -4.22734 2.13073 45
-4.44245 -4.24505 2.14145 37
-4.45339 -4.23322 2.15207 33
-4.44365 -4.23576 2.16262 29
-4.44778 -4.23817 2.17341 37
-4.4503 -4.24943 2.18438 94
-4.46279 -4.2213 2.19467 56
-4.44416 -4.24055 2.2054 53
-4.46526 -4.23244 2.21636 77
-4.43715 -4.23972 2.22654 56
-4.44249 -4.23289 2.24782 72
-4.44966 -4.24557 2.26977 77
-4.43896 -4.23382 2.2904 64
-4.43174 -4.23279 2.31145 56
-4.45809 -4.22064 2.38673 72
-4.42364 -4.20971 2.49122 32
-4.44516 -4.22964 2.66006 79
-9.86914 -9.39957 3.82776 10
-7.20612 -6.87604 3.76839 12
-5.56152 -5.25809 3.70386 20
-4.30315 -4.10253 3.70729 46
-1.75313 -1.65788 0.949403 8
-1.8508 -1.7599 1.16118 6
-2.13151 -2.01678 1.2292 5
-4.46856 -4.2511 0.646759 7
-4.4962 -4.25151 0.845838 93
-4.49719 -4.24599 1.00131 93
-4.49326 -4.24778 1.12238 94
-4.48696 -4.24445 1.22051 47
-4.4873 -4.23565 1.29728 78
-4.46978 -4.24106 1.35247 36
-4.48253 -4.23232 1.38451 84
-4.48296 -4.23706 1.42197 54
-4.46944 -4.2271 1.45694 79
-4.46418 -4.23533 1.47832 39
-4.47256 -4.2506 1.49845 62
-4.48217 -4.22859 1.5206 58
-4.46819 -4.22415 1.54313 54
-4.46633 -4.2356 1.56414 53
-4.46732 -4.24386 1.58624 47
-4.48026 -4.22502 1.60682 49
-4.46968 -4.2238 1.62883 42
-4.45955 -4.23629 1.65021 35
-4.46471 -4.23962 1.67128 39
-4.47232 -4.22608 1.69286 55
-4.4623 -4.21654 1.71493 35
-4.45633 -4.23147 1.73605 28
-4.46415 -4.23881 1.75697 48
-4.46503 -4.21742 1.77885 55
-4.47004 -4.22062 1.8 42
-4.47836 -4.21958 1.81049 59
-4.45512 -4.23004 1.82152 71
-4.47074 -4.22117 1.832 64
-4.4671 -4.23984 1.84244 73
-4.47185 -4.22068 1.85333 78
-4.46775 -4.21824 1.86412 76
-4.46941 -4.2242 1.87469 62
-4.47619 -4.22466 1.88525 72
-4.48005 -4.22088 1.89699 69
-4.46104 -4.23389 1.90673 53
-4.47947 -4.22911 1.91722 72
-4.47644 -4.24692 1.92782 64
-4.47671 -4.22499 1.93865 41
-4.47251 -4.22245 1.94938 78
-4.47406 -4.22831 1.96002 56
-4.4742 -4.22102 1.97072 63
-4.4713 -4.22415 1.9814 67
-4.4669 -4.22881 1.99209 62
-4.47051 -4.23219 2.00276 69
-4.47328 -4.24365 2.01347 65
-4.48592 -4.21566 2.02407 56
-4.46465 -4.23099 2.03479 71
-4.48158 -4.22035 2.04545 62
-4.47424 -4.22076 2.05717 76
-4.47198 -4.22302 2.06678 75
-4.46309 -4.22492 2.07741 88
-4.46659 -4.2282 2.08814 68
-4.47 -4.23878 2.09898 95
-4.48251 -4.2107 2.10942 88
-4.46404 -4.23013 2.12016 55
-4.4816 -4.2186 2.13089 90
-4.4645 -4.2364 2.14163 69
-4.47615 -4.22372 2.15226 79
-4.46568 -4.22709 2.16283 89
-4.46982 -4.22948 2.17364 76
-4.47237 -4.24073 2.18462 84
-4.48843 -4.21597 2.19509 76
-4.4662 -4.23188 2.20568 87
-4.48729 -4.22367 2.21665 81
-4.45918 -4.23107 2.22686 84
-4.46451 -4.22422 2.24817 74
-4.4681 -4.23344 2.26993 83
-4.46097 -4.22517 2.29082 84
-4.45375 -4.22415 2.3119 83
-4.48008 -4.21188 2.3873 78
-4.45718 -4.21056 2.49317 82
-4.46066 -4.2133 2.66 93
-9.91278 -9.37521 3.82964 12
-7.23017 -6.85078 3.7683 11
-5.56926 -5.22856 3.70053 20
-4.30009 -4.0709 3.70032 43
-1.76494 -1.65867 0.94533 8
-1.86379 -1.75997 1.15799 6
-2.14554 -2.01597 1.22659 3
-4.4833 -4.23554 0.646708 21
-4.52169 -4.24594 0.843011 72
-4.51553 -4.23369 1.00045 94
-4.51523 -4.23889 1.12091 70
-4.50532 -4.2322 1.21982 94
-4.50418 -4.22496 1.29666 76
-4.48814 -4.22887 1.35188 93
-4.50087 -4.22008 1.38395 95
-4.4977 -4.22142 1.42191 87
-4.48777 -4.21491 1.45644 94
-4.48253 -4.22316 1.47784 87
-4.48734 -4.23498 1.4984 93
-4.49688 -4.21294 1.52055 94
-4.48288 -4.20855 1.54308 95
-4.48469 -4.22343 1.56373 94
-4.48934 -4.2351 1.58551 93
-4.4986 -4.21279 1.60645 93
-4.48437 -4.20819 1.62877 94
-4.48156 -4.22756 1.64958 93
-4.49036 -4.23429 1.67041 94
-4.49431 -4.2173 1.6923 94
-4.48426 -4.20778 1.7144 93
-4.4856 -4.2296 1.73513 94
-4.48618 -4.23007 1.75652 88
-4.48699 -4.20866 1.77843 91
-4.48838 -4.20842 1.79978 83
-4.4945 -4.2097 1.81029 83
-4.47712 -4.22133 1.82117 94
-4.49273 -4.21238 1.83167 81
-4.48914 -4.23108 1.84213 60
-4.49383 -4.21189 1.85303 13
-4.48973 -4.20947 1.86384 54
-4.48776 -4.212 1.87453 8
-4.49455 -4.21243 1.8851 62
-4.49255 -4.20757 1.89694 22
-4.47578 -4.2183 1.90668 86
-4.49055 -4.21004 1.91724 95
-4.48395 -4.22443 1.92789 94
-4.48414 -4.2025 1.9387 11
-4.49815 -4.21708 1.94919 94
-4.49243 -4.21609 1.95993 10
-4.49985 -4.21563 1.97059 87
-4.49987 -4.22299 1.98128 95
-4.49985 -4.23031 1.99199 73
-4.48161 -4.21314 2.00271 86
-4.53541 -4.27255 2.01353 63
-4.51157 -4.21022 2.02406 78
-4.46483 -4.20166 2.03463 93
-4.51089 -4.21834 2.04553 56
-4.49624 -4.21195 2.0572 95
-4.4969 -4.21843 2.06688 67
-4.49967 -4.22986 2.07772 95
-4.49591 -4.22627 2.08836 88
-4.53212 -4.26767 2.09994 95
-4.50449 -4.20185 2.10954 81
-4.48606 -4.22137 2.1203 81
-4.489 -4.1961 2.13063 62
-4.47199 -4.21393 2.14135 78
-4.4894 -4.20964 2.15222 61
-4.48041 -4.21147 2.16278 95
-4.48456 -4.21385 2.17359 85
-4.49079 -4.22852 2.18472 94
-4.50312 -4.20027 2.19504 72
-4.49914 -4.23339 2.20645 86
-4.49837 -4.20456 2.21642 87
-4.48848 -4.22919 2.22754 69
-4.47196 -4.20176 2.24771 95
-4.52654 -4.25886 2.27249 87
-4.48298 -4.21641 2.29124 60
-4.45757 -4.1983 2.31109 66
-4.50936 -4.20982 2.3885 9
-4.47114 -4.19574 2.49312 67
-4.47826 -4.20186 2.66049 48
-10.0214 -9.4117 3.84349 17
-7.25771 -6.8288 3.76909 10
-5.59113 -5.21234 3.70155 20
-4.31086 -4.05251 3.69888 30
-1.77401 -1.65566 0.943282 8
-1.88372 -1.76646 1.15162 6
-2.16313 -2.01838 1.22269 3
-4.50868 -4.22994 0.643414 56
-4.5472 -4.24024 0.840182 10
-4.54106 -4.22804 0.997982 39
-4.51909 -4.21301 1.12299 4
-4.5164 -4.2131 1.2204 40
-4.52976 -4.2194 1.29489 19
-4.4992 -4.20981 1.35236 83
-4.54468 -4.23148 1.37988 29
-10.2078 -9.52054 0.683064 4
-4.48785 -4.18565 1.45817 75
-4.49358 -4.20411 1.47821 94
-4.49479 -4.21251 1.49917 54
-4.51153 -4.19724 1.52049 84
-4.50116 -4.1963 1.54265 66
-4.49938 -4.20777 1.56367 71
-4.53686 -4.2501 1.58239 52
-4.51326 -4.19708 1.60639 68
-4.48806 -4.18232 1.62964 46
-4.48533 -4.20167 1.65039 95
-4.47957 -4.19474 1.67226 39
-4.49072 -4.18457 1.69352 22
-4.51351 -4.20574 1.7134 11
-4.49667 -4.21052 1.73529 21
-4.54104 -4.25193 1.75425 93
-4.49433 -4.18617 1.77874 10
-4.52131 -4.20976 1.79889 11
-10.1759 -9.46047 1.56605 33
-4.48087 -4.19544 1.82157 95
-4.52935 -4.21711 1.83077 13
-4.53308 -4.2427 1.84102 94
-10.2059 -9.50537 1.66161 24
-4.50804 -4.19719 1.86367 11
-10.2131 -9.5215 1.70987 21
nan nan nan nan
-10.1725 -9.45656 1.76217 29
-4.48317 -4.19583 1.90678 75
-4.53815 -4.22499 1.91655 35
-4.53154 -4.23948 1.92728 89
-10.2489 -9.54483 1.85528 23
nan nan nan nan
-10.1532 -9.46504 1.90495 22
-4.52917 -4.21353 1.97042 11
-4.56213 -4.25157 1.98099 33
-4.52921 -4.22823 1.9919 37
-4.49629 -4.19747 2.00265 45
-4.55394 -4.26011 2.01348 66
-10.1745 -9.43504 2.04982 30
-10.1249 -9.46629 2.07405 23
-4.56221 -4.2366 2.04582 19
-4.51824 -4.20305 2.05723 36
-4.52257 -4.21293 2.06698 23
-4.51076 -4.21071 2.0776 31
-4.51794 -4.21737 2.08845 16
-4.52872 -4.23476 2.09949 33
-10.153 -9.41114 2.24253 13
nan nan nan nan
-10.1445 -9.41918 2.29076 14
-4.49397 -4.20512 2.14152 32
-4.52237 -4.21097 2.15277 1
-4.50606 -4.20603 2.16312 31
-4.52484 -4.22202 2.1745 11
-4.52745 -4.23328 2.18555 24
-10.1609 -9.41778 2.43576 14
nan nan nan nan
-10.1519 -9.42537 2.48403 14
nan nan nan nan
-4.51218 -4.20997 2.24906 31
-4.50852 -4.21235 2.27048 11
nan nan nan nan
-10.0919 -9.43956 2.69986 14
-10.1913 -9.45064 2.87367 11
-10.1379 -9.44612 3.11356 12
-10.0256 -9.34017 3.47415 12
-10.076 -9.39686 3.84736 20
-7.26361 -6.78655 3.76463 10
-5.60937 -5.19273 3.70148 20
-4.31101 -4.02425 3.69329 41
-1.78307 -1.65261 0.941233 8
-1.89677 -1.76637 1.14843 6
-2.17012 -2.01086 1.22267 3
-4.53406 -4.22421 0.640118 74
-5.72218 -5.30013 0.542359 4
nan nan nan nan
-7.25337 -6.7164 0.59149 3
-4.53467 -4.20071 1.21971 28
-10.2406 -9.47162 0.40147 4
-4.54298 -4.22117 1.34808 28
nan nan nan nan
-10.2153 -9.46123 0.686243 3
-4.49875 -4.1666 1.45856 16
-4.52645 -4.20537 1.47602 31
-4.53864 -4.22396 1.49583 11
-10.1768 -9.40645 0.913617 33
-10.1643 -9.41084 0.962656 31
nan nan nan nan
-4.57722 -4.25802 1.57996 16
-10.2109 -9.43403 1.10476 35
nan nan nan nan
-4.50361 -4.18941 1.65005 95
-4.54904 -4.23006 1.66813 10
-4.5236 -4.18585 1.69219 6
-4.52448 -4.18658 1.71358 6
-4.48205 -4.16761 1.73699 11
-4.52656 -4.20887 1.75581 9
-10.1922 -9.43179 1.49359 22
-10.2521 -9.48005 1.53943 22
-10.2088 -9.42492 1.56592 33
-4.51012 -4.19339 1.82092 31
nan nan nan nan
-4.52587 -4.20646 1.84176 34
-10.2169 -9.44934 1.66222 24
-10.2131 -9.44714 1.68656 22
-10.2022 -9.44505 1.71101 21
-10.2101 -9.43724 1.73518 35
-10.2274 -9.44136 1.76152 29
-4.52342 -4.20398 1.90617 27
nan nan nan nan
nan nan nan nan
-10.2051 -9.4377 1.85627 22
-10.201 -9.43527 1.88051 35
-10.2009 -9.44314 1.90468 21
-10.2065 -9.42992 1.92887 22
-10.1994 -9.43786 1.95309 33
-10.1884 -9.44234 1.97732 34
-10.193 -9.44467 2.0015 31
-10.1877 -9.45763 2.02573 29
-10.222 -9.41302 2.04976 25
-10.1798 -9.45131 2.07408 23
-10.2104 -9.41818 2.09814 17
-10.192 -9.41575 2.12464 12
-10.1825 -9.41829 2.14635 12
-10.1771 -9.43111 2.17059 13
-10.1704 -9.42302 2.1946 12
-10.1628 -9.43055 2.21876 13
-10.2079 -9.39596 2.24292 12
-10.1601 -9.43234 2.26704 12
-10.2398 -9.44132 2.2924 13
-10.1621 -9.44355 2.31555 12
-10.1821 -9.41387 2.33948 13
-10.1784 -9.43163 2.36392 13
-10.1731 -9.42154 2.38779 11
-10.1673 -9.43402 2.41211 13
-10.2636 -9.44656 2.4386 13
-10.1641 -9.43535 2.4604 14
-10.2031 -9.4068 2.48477 13
-10.1583 -9.4393 2.5087 13
-10.172 -9.42175 2.55692 13
-10.1694 -9.42869 2.60542 12
-10.1751 -9.44154 2.65442 14
-10.1505 -9.42804 2.7015 13
-10.2096 -9.40146 2.87229 11
-10.1709 -9.41063 3.11344 12
-10.1713 -9.40971 3.49061 12
-10.1089 -9.36156 3.84723 11
-7.29094 -6.76443 3.76542 13
-5.62036 -5.16644 3.69923 20
-4.31103 -3.99605 3.6877 39
-1.79887 -1.65571 0.935129 8
-1.90985 -1.76621 1.14523 6
-2.18776 -2.01311 1.21877 3
nan nan nan nan
-5.73334 -5.27353 0.544136 4
-6.49616 -5.96607 0.571499 3
-7.2767 -6.6911 0.591398 3
nan nan nan nan
-10.2771 -9.43925 0.400768 4
-9.54306 -8.80296 0.627026 4
-9.87848 -9.06584 0.652528 3
-10.2775 -9.45254 0.682336 3
nan nan nan nan
-10.2103 -9.41727 0.813687 5
-10.2105 -9.43011 0.861665 20
-10.2535 -9.41138 0.908771 31
-10.2338 -9.4091 0.958771 31
-10.2308 -9.43221 1.00651 33
-10.2491 -9.46164 1.05537 26
-10.2879 -9.43886 1.10075 33
-10.2529 -9.42264 1.15185 5
-4.49251 -4.14998 1.65201 6
-4.54541 -4.19724 1.66943 5
-4.50876 -4.14301 1.69417 4
-4.47654 -4.11333 1.71754 5
-4.48554 -4.14179 1.73759 8
-4.53386 -4.18628 1.75615 5
-10.2544 -9.42324 1.49199 21
-10.263 -9.42395 1.5403 22
-10.319 -9.46017 1.56247 33
-10.236 -9.44809 1.58906 32
-10.2712 -9.42563 1.61292 22
-10.2626 -9.46535 1.63675 33
-10.3308 -9.48805 1.65938 24
-10.2791 -9.44189 1.6854 22
-10.3087 -9.47707 1.70877 21
-10.2835 -9.43875 1.73399 34
-10.3193 -9.45967 1.76 27
-10.245 -9.45232 1.783 30
-10.2745 -9.42801 1.80709 35
-10.2563 -9.45556 1.83139 34
-10.3374 -9.49337 1.8547 22
-10.2744 -9.43683 1.8799 33
-10.3 -9.4684 1.90391 21
-10.2689 -9.42129 1.92853 22
-10.269 -9.43604 1.95278 33
-10.2618 -9.44397 1.97709 34
-10.2591 -9.43951 2.00136 31
-10.2501 -9.44911 2.02566 29
-10.3249 -9.44142 2.04995 25
-10.2752 -9.47334 2.07438 23
-10.2764 -9.41289 2.09832 17
-10.2616 -9.41391 2.12495 12
-10.2558 -9.41989 2.14679 12
-10.2394 -9.42261 2.17094 12
-10.2327 -9.41453 2.19502 12
-10.2288 -9.4255 2.21933 12
-10.2959 -9.41087 2.24408 12
-10.2187 -9.42054 2.26758 11
-10.2874 -9.41902 2.29268 12
-10.2171 -9.42835 2.3161 12
-10.2406 -9.40193 2.3402 12
-10.2664 -9.44679 2.36575 13
-10.228 -9.40626 2.38849 11
-10.2627 -9.45601 2.41449 12
-10.3002 -9.41404 2.43863 13
-10.2154 -9.41674 2.4611 14
-10.2912 -9.42174 2.48724 13
-10.2426 -9.45121 2.51113 13
-10.2306 -9.40984 2.55819 13
-10.2317 -9.42018 2.60703 12
-10.2374 -9.43302 2.65617 13
-10.2311 -9.43654 2.70465 13
-10.2718 -9.39268 2.87467 11
-10.2221 -9.39189 3.11531 11
-10.1932 -9.364 3.48888 12
-10.1489 -9.33285 3.84844 11
-7.30736 -6.7322 3.76357 11
-5.63845 -5.14672 3.69916 20
-4.31089 -3.96789 3.6821 30
-1.80121 -1.64638 0.937133 8
-1.92294 -1.76598 1.14203 6
-2.1983 -2.00875 1.21745 3
-4.93018 -4.52925 0.529803 4
-5.75163 -5.25355 0.544062 4
-6.50958 -5.93676 0.573023 3
-7.29628 -6.66239 0.592014 3
-8.03502 -7.34055 0.619835 3
-10.3613 -9.45025 0.392626 4
-9.90366 -9.07187 0.579327 4
-9.91735 -9.03806 0.651394 3
-10.3397 -9.44354 0.678426 4
nan nan nan nan
-10.2724 -9.40854 0.810133 5
-10.2837 -9.43151 0.85702 18
-10.3268 -9.41253 0.904314 31
-10.3291 -9.43052 0.952252 31
-10.3225 -9.45037 1.00065 33
-10.3519 -9.48988 1.04878 26
-10.3576 -9.43655 1.09738 32
-10.3262 -9.42384 1.14835 4
-4.50695 -4.13429 1.65195 6
-4.54896 -4.17125 1.67019 5
-4.53055 -4.134 1.6936 5
-4.53881 -4.14146 1.71441 5
-4.49628 -4.12275 1.73775 6
-4.55211 -4.17382 1.75589 5
-10.3463 -9.44131 1.48891 21
-10.3401 -9.4285 1.53817 22
-10.3667 -9.43757 1.56171 35
-10.3095 -9.44947 1.58729 32
-10.3483 -9.43013 1.6111 22
-10.3398 -9.46999 1.63504 33
-10.3712 -9.45869 1.659 35
-10.3674 -9.45651 1.68356 21
-10.3638 -9.46127 1.708 35
-10.3718 -9.45333 1.7324 32
-10.3781 -9.44716 1.75925 36
-10.3295 -9.46379 1.78176 30
-10.3702 -9.44933 1.80576 34
-10.3335 -9.46022 1.83052 33
-10.3668 -9.45387 1.85462 34
-10.3626 -9.45146 1.8791 32
-10.3589 -9.45599 1.90353 34
-10.3645 -9.44265 1.92794 22
-10.3573 -9.45069 1.95237 33
-10.3501 -9.45869 1.97681 34
-10.351 -9.45759 2.00121 31
-10.3457 -9.47066 2.02567 29
-10.38 -9.4255 2.04991 24
-10.3377 -9.46444 2.07445 23
-10.3683 -9.4308 2.09873 17
-10.3499 -9.42855 2.12547 12
-10.3404 -9.4312 2.14737 11
-10.3349 -9.44413 2.17183 12
-10.3282 -9.43607 2.19606 12
-10.3206 -9.44371 2.22044 12
-10.3657 -9.40848 2.24481 13
-10.3179 -9.44557 2.26916 11
-10.3499 -9.40995 2.29338 13
-10.3126 -9.45004 2.31788 12
-10.3325 -9.41999 2.34201 12
-10.3178 -9.42775 2.36626 13
-10.3236 -9.42777 2.39072 11
-10.3178 -9.44036 2.41524 12
-10.3552 -9.39818 2.43943 14
-10.3182 -9.44513 2.4641 13
-10.3536 -9.41264 2.4885 14
-10.3087 -9.44576 2.51264 13
-10.3224 -9.42796 2.56126 13
-10.3236 -9.4383 2.61038 12
-10.3034 -9.42756 2.65815 13
-10.2787 -9.41424 2.70553 13
-10.3268 -9.37686 2.87641 13
-10.288 -9.38634 3.11878 11
-10.2957 -9.39196 3.49891 13
-10.1778 -9.29396 3.84764 11
-7.32727 -6.70326 3.7626 11
-5.65646 -5.12694 3.69908 20
-4.32126 -3.94951 3.68066 41
-1.81704 -1.64934 0.931027 8
-1.93957 -1.76887 1.13725 6
-2.216 -2.01082 1.21355 4
-4.94228 -4.50879 0.530819 4
-5.77713 -5.24011 0.542137 4
-6.53384 -5.91738 0.572132 3
-7.31941 -6.63694 0.591917 3
-8.0495 -7.30252 0.621627 3
-10.4346 -9.45078 0.386196 4
nan nan nan nan
-9.91925 -8.97676 0.655284 3
-10.3726 -9.40745 0.67829 3
-10.3222 -9.36248 0.760564 4
-10.3604 -9.42296 0.80358 5
-10.3645 -9.43922 0.851549 13
-10.4076 -9.41997 0.899065 31
-10.3951 -9.4246 0.948734 33
-10.3886 -9.44452 0.997288 33
-10.3922 -9.46045 1.04796 26
-10.4311 -9.43721 1.09369 33
-10.3996 -9.42465 1.14485 4
-4.52133 -4.11855 1.65189 5
-4.52654 -4.12177 1.67284 5
-4.52644 -4.1014 1.69481 5
-4.53102 -4.10548 1.71577 5
-4.49954 -4.09695 1.73835 6
-4.55186 -4.14447 1.75664 5
-10.4162 -9.43873 1.48693 33
-10.41 -9.42592 1.53637 33
-10.4367 -9.43487 1.55999 34
-10.4015 -9.46727 1.58477 32
-10.4367 -9.44426 1.60886 31
-10.4282 -9.48429 1.63293 33
-10.4486 -9.46272 1.65739 34
-10.441 -9.45721 1.68216 32
-10.4338 -9.45864 1.70681 35
-10.4492 -9.45734 1.7311 34
-10.4518 -9.44777 1.75815 35
-10.4105 -9.47142 1.78059 30
-10.4402 -9.44663 1.80491 34
-10.4256 -9.4779 1.82939 33
-10.4367 -9.45121 1.85395 33
-10.4326 -9.44882 1.87851 34
-10.4325 -9.45673 1.903 32
-10.4382 -9.44332 1.9275 33
-10.431 -9.45142 1.95204 34
-10.4238 -9.45946 1.97657 33
-10.421 -9.455 2.00107 33
-10.4157 -9.46812 2.02561 34
-10.4537 -9.42605 2.04995 26
-10.4114 -9.4653 2.0746 32
-10.4383 -9.42807 2.09893 20
-10.4235 -9.42926 2.12581 11
-10.4177 -9.43533 2.14785 11
-10.4049 -9.44159 2.1723 13
-10.3982 -9.43355 2.19661 11
-10.3943 -9.4446 2.22116 14
-10.4319 -9.40237 2.24545 12
-10.3878 -9.44313 2.26997 10
-10.416 -9.40392 2.29417 12
-10.3825 -9.44762 2.31887 11
-10.4061 -9.42076 2.34321 12
-10.3914 -9.42861 2.36756 12
-10.3935 -9.42524 2.39197 12
-10.3877 -9.43787 2.41658 12
-10.4288 -9.39877 2.44101 12
-10.3844 -9.4393 2.46545 13
-10.4198 -9.40656 2.48992 13
-10.3786 -9.44333 2.51433 13
-10.3923 -9.42541 2.56312 13
-10.3898 -9.4324 2.6122 13
-10.377 -9.42847 2.6606 13
-10.3559 -9.4186 2.70842 13
-10.4002 -9.37749 2.87972 13
-10.3503 -9.3771 3.12185 13
-10.369 -9.39262 3.50465 13
-10.2103 -9.2583 3.84751 11
-7.33249 -6.66101 3.75813 11
-5.67441 -5.1071 3.69901 20
-4.32087 -3.92141 3.67507 39
-1.82273 -1.64304 0.931003 8
-1.95272 -1.76849 1.13405 6
-2.22655 -2.00634 1.21223 4
-4.96515 -4.49813 0.528593 4
-5.79166 -5.21669 0.542984 4
-6.54704 -5.888 0.573653 3
-7.34613 -6.61473 0.591109 3
-8.07855 -7.27776 0.620886 3
-10.5118 -9.45423 0.379189 4
-10.4278 -9.41918 0.512973 4
-9.93934 -8.93217 0.656658 3
-10.409 -9.37458 0.677678 3
-10.4213 -9.38645 0.752409 4
-10.4228 -9.4135 0.800018 5
-10.4379 -9.43979 0.846895 29
-10.4774 -9.41696 0.894993 31
-10.4761 -9.43168 0.943708 32
-10.4733 -9.45502 0.992132 36
-10.4955 -9.4877 1.04136 35
-10.4899 -9.42414 1.09128 32
nan nan nan nan
-4.51715 -4.08602 1.65328 5
-4.54088 -4.10596 1.67278 5
-4.53329 -4.07891 1.69526 5
-4.54159 -4.08631 1.71595 5
-4.50268 -4.07119 1.73894 6
-4.56257 -4.12522 1.75678 5
-10.4824 -9.43243 1.48514 32
-10.4762 -9.41962 1.53472 33
-10.5067 -9.43179 1.55827 34
-10.4715 -9.46443 1.58314 33
-10.5068 -9.4412 1.60731 32
-10.4983 -9.48135 1.63147 33
-10.5187 -9.45965 1.65602 34
-10.5074 -9.45082 1.68099 33
-10.5076 -9.45897 1.70551 33
-10.523 -9.45759 1.72989 33
-10.5219 -9.44464 1.75714 32
-10.4843 -9.4719 1.77958 32
-10.5177 -9.45023 1.80392 34
-10.492 -9.47161 1.8287 33
-10.5068 -9.44817 1.85328 33
-10.5138 -9.45583 1.87779 32
-10.5026 -9.45372 1.9025 34
-10.5045 -9.43691 1.92712 32
-10.5048 -9.45175 1.95169 34
-10.4976 -9.45984 1.97632 34
-10.4948 -9.45538 2.00092 34
-10.4895 -9.46855 2.02556 34
-10.5275 -9.42621 2.04999 26
-10.4852 -9.46577 2.07474 32
-10.5121 -9.4283 2.09916 23
-10.4972 -9.42957 2.12615 13
-10.4915 -9.43568 2.14828 13
-10.4749 -9.43868 2.17276 12
-10.4719 -9.43399 2.19723 12
-10.4606 -9.43839 2.22172 12
-10.5019 -9.39925 2.24617 11
-10.4615 -9.44366 2.27088 12
-10.486 -9.40087 2.29507 12
-10.4525 -9.44483 2.31986 13
-10.4798 -9.42113 2.3444 12
-10.4614 -9.42572 2.36872 13
-10.4635 -9.42233 2.39322 13
-10.4577 -9.43501 2.41791 12
-10.4951 -9.39231 2.44227 13
-10.4581 -9.43983 2.46713 14
-10.4935 -9.40682 2.49169 12
-10.4486 -9.44053 2.51602 12
-10.466 -9.42583 2.56518 13
-10.4598 -9.42949 2.61423 13
-10.4395 -9.41894 2.66234 13
-10.4258 -9.41584 2.71081 13
-10.4701 -9.37439 2.8827 14
-10.383 -9.34087 3.12171 11
-10.4683 -9.41615 3.51414 13
-10.2353 -9.2159 3.84604 9
-7.35579 -6.63531 3.75803 14
-5.69229 -5.08719 3.69893 20
-4.3132 -3.88694 3.6667 33
-1.84884 -1.655 0.918814 8
-1.96589 -1.76804 1.13085 6
-2.2335 -1.99859 1.2122 4
-4.97711 -4.47757 0.529607 4
-5.80244 -5.18995 0.544754 4
-6.56748 -5.86518 0.573563 3
-7.36172 -6.58251 0.592428 3
-8.10383 -7.24958 0.620775 3
-10.5706 -9.44072 0.375039 4
-10.4458 -9.36952 0.514946 5
-9.94069 -8.87099 0.660543 4
-10.4453 -9.34157 0.677063 3
-10.4985 -9.38991 0.74692 4
-10.4889 -9.40705 0.796024 5
-10.5115 -9.43997 0.842237 25
-10.5547 -9.42022 0.890129 31
-10.5572 -9.43831 0.938678 34
-10.5598 -9.46321 0.986964 37
-10.5805 -9.49769 1.03646 36
-10.5711 -9.4307 1.08693 31
-4.48522 -4.00771 1.63663 4
-4.50536 -4.0469 1.65524 5
-4.55888 -4.09344 1.67245 5
-4.52143 -4.03977 1.69697 4
-4.49622 -4.01721 1.71967 5
-4.49082 -4.03211 1.74041 6
-4.56949 -4.10261 1.75712 5
-10.5674 -9.44243 1.48241 33
-10.5612 -9.42962 1.53225 33
-10.5917 -9.44163 1.55591 34
-10.5528 -9.47124 1.58105 33
-10.5882 -9.44774 1.60534 31
-10.5834 -9.49137 1.62949 33
-10.5964 -9.46286 1.65439 34
-10.585 -9.45407 1.67947 31
-10.5927 -9.4689 1.70388 34
-10.6119 -9.47075 1.7283 31
-10.5995 -9.44778 1.75594 34
-10.5731 -9.48534 1.77825 32
-10.6103 -9.46672 1.80265 34
-10.5772 -9.48164 1.82768 33
-10.5919 -9.45809 1.85239 33
-10.599 -9.46572 1.87702 32
-10.584 -9.46034 1.90189 34
-10.5859 -9.44347 1.92662 33
-10.5862 -9.45833 1.95131 34
-10.5827 -9.46982 1.97604 35
-10.5762 -9.46203 2.00076 35
-10.5709 -9.47526 2.02551 35
-10.6089 -9.43261 2.05006 33
-10.5666 -9.47251 2.07492 31
-10.5934 -9.43479 2.09946 30
-10.5749 -9.43282 2.12652 24
-10.5691 -9.43896 2.14875 11
-10.5562 -9.44539 2.1734 20
-10.542 -9.4307 2.19778 12
-10.5382 -9.44184 2.22251 17
-10.5833 -9.40571 2.24715 12
-10.5391 -9.44713 2.27188 13
-10.5636 -9.40409 2.29617 14
-10.5264 -9.445 2.32095 12
-10.5537 -9.4211 2.34559 13
-10.5352 -9.42579 2.37 14
-10.5336 -9.41904 2.39446 12
-10.5315 -9.43511 2.41939 14
-10.5689 -9.39213 2.44384 12
-10.5282 -9.43661 2.46863 12
-10.5636 -9.40335 2.49328 12
-10.5224 -9.44069 2.51788 13
-10.5452 -9.42734 2.56742 13
-10.5447 -9.43954 2.61713 13
-10.5281 -9.43242 2.66571 14
-10.5106 -9.42605 2.71419 13
-10.5662 -9.39413 2.88788 9
-10.4751 -9.35765 3.12796 13
-10.542 -9.41592 3.51988 31
-10.2527 -9.16684 3.84324 11
-7.37899 -6.60952 3.75793 12
-5.71374 -5.07046 3.69994 22
-4.32683 -3.87179 3.66664 46
-1.85113 -1.64554 0.920815 8
-1.97585 -1.76402 1.12923 6
-2.25849 -2.00685 1.20571 4
-4.99263 -4.46023 0.529538 4
-5.82411 -5.17299 0.543748 4
-6.58414 -5.83901 0.574276 3
-7.38458 -6.55684 0.592325 3
-8.12901 -7.22131 0.620662 3
-10.7112 -9.49941 0.358296 4
-10.4948 -9.34447 0.512679 5
-9.98642 -8.84949 0.658392 4
-10.5187 -9.34148 0.67172 3
-10.5833 -9.39957 0.740537 4
-10.5716 -9.41166 0.790306 6
-10.5927 -9.44638 0.836753 14
-10.636 -9.42636 0.884867 30
-10.6422 -9.44779 0.933268 33
-10.6391 -9.46427 0.982508 36
-10.6582 -9.50057 1.03223 36
-10.6487 -9.4335 1.08289 31
-4.4917 -3.98542 1.63718 5
-4.51269 -4.02374 1.65575 5
-4.55821 -4.06424 1.67347 4
-4.52428 -4.01404 1.69767 3
-4.49526 -3.98824 1.72055 4
-4.49809 -4.00899 1.74079 6
-10.658 -9.49549 1.42878 4
-10.6451 -9.44531 1.48006 33
-10.6651 -9.45571 1.52893 32
-10.6733 -9.44769 1.55371 33
-10.6434 -9.48238 1.57866 33
-10.6772 -9.46045 1.60308 31
-10.665 -9.49759 1.62762 34
-10.6817 -9.47228 1.65252 34
-10.674 -9.46684 1.67761 32
-10.678 -9.47836 1.70226 33
-10.6898 -9.47345 1.72698 32
-10.6811 -9.45382 1.75466 33
-10.6563 -9.48975 1.77706 32
-10.6882 -9.46941 1.80165 34
-10.6662 -9.49453 1.82661 34
-10.681 -9.47084 1.85144 34
-10.6768 -9.46849 1.87634 32
-10.673 -9.47314 1.9012 34
-10.6749 -9.4562 1.92606 32
-10.6678 -9.46447 1.95092 33
-10.6659 -9.47414 1.97576 34
-10.6615 -9.47154 2.0006 33
-10.6562 -9.48483 2.02548 34
-10.6942 -9.44187 2.05014 33
-10.6518 -9.48213 2.07513 32
-10.6787 -9.44413 2.09978 29
-10.6601 -9.44226 2.12698 13
-10.6544 -9.44845 2.14932 14
-10.6431 -9.45311 2.17409 12
-10.6384 -9.45028 2.1988 12
-10.6346 -9.46147 2.22368 13
-10.6685 -9.41503 2.2482 12
-10.628 -9.46015 2.27316 13
-10.6563 -9.42014 2.29768 11
-10.6078 -9.45143 2.32227 13
-10.6351 -9.42729 2.34702 1
-10.5996 -9.41366 2.37089 11
-10.6225 -9.43198 2.39639 9
-10.613 -9.44145 2.42116 11
-10.6691 -9.41471 2.4465 10
-10.6171 -9.44963 2.47096 11
-10.6488 -9.41274 2.49556 13
-10.6038 -9.4471 2.5201 12
-10.6208 -9.42508 2.56946 14
-10.6187 -9.43915 2.61937 13
-10.6245 -9.45204 2.66955 20
-10.6106 -9.44906 2.71858 12
-10.7074 -9.45295 2.8968 25
-10.5711 -9.37722 3.13462 29
-10.5563 -9.36252 3.51706 29
-10.2847 -9.13093 3.8431 10
-7.4021 -6.58365 3.75783 12
-5.73149 -5.05042 3.69986 20
-4.32604 -3.84383 3.66104 39
-1.86708 -1.64819 0.914707 8
-1.99229 -1.76692 1.12445 6
-2.27631 -2.00856 1.20181 4
-5.01174 -4.44608 0.528388 4
-5.79048 -5.10717 0.556616 4
-6.60441 -5.81605 0.574181 3
-7.41106 -6.53436 0.59151 3
-8.15037 -7.18967 0.621179 3
-10.8075 -9.51785 0.348414 4
-10.6151 -9.38872 0.499844 5
-10.0657 -8.85735 0.651711 3
-10.5661 -9.31795 0.66968 3
-10.6794 -9.41863 0.732812 4
-10.6475 -9.4162 0.785027 6
-10.6666 -9.44573 0.832085 10
-10.7099 -9.42546 0.880388 29
-10.7162 -9.44691 0.928981 32
-10.7098 -9.46717 0.978428 36
-10.7211 -9.4898 1.02936 35
-10.7452 -9.45235 1.07724 30
-4.49808 -3.96314 1.63773 5
-4.51477 -3.99884 1.65656 5
-4.50503 -3.98878 1.67829 4
-4.51203 -3.97512 1.69938 4
-4.50539 -3.96924 1.72072 5
-4.49264 -3.97751 1.74182 6
-10.7247 -9.48804 1.42681 4
-10.7267 -9.45108 1.47751 32
-10.743 -9.45808 1.52677 31
-10.7549 -9.45329 1.5515 33
-10.7197 -9.4868 1.57673 32
-10.7551 -9.46276 1.60124 30
-10.7468 -9.50336 1.62576 32
-10.7634 -9.47791 1.65077 33
-10.752 -9.4692 1.67608 31
-10.7598 -9.48402 1.70073 34
-10.7753 -9.48234 1.72547 32
-10.7628 -9.45939 1.75337 33
-10.7364 -9.49743 1.77588 32
-10.77 -9.47498 1.80057 32
-10.7442 -9.49697 1.82571 32
