# .PCD v0.7 - Point Cloud Data file format
VERSION 0.7
FIELDS x y z intensity
SIZE 4 4 4 4
TYPE F F F F
COUNT 1 1 1 1
WIDTH 1858
HEIGHT 1
VIEWPOINT 0 0 0 1 0 0 0
POINTS 1858
DATA ascii
-7.01102 22.0429 1.32249 10
-7.02642 22.0234 1.36355 25
-6.88499 21.8701 1.40736 12
-7.00694 21.948 1.44613 12
-6.93181 21.9623 1.4853 10
-6.96067 21.9857 1.52916 13
-6.97206 21.9933 1.56528 14
-6.99339 21.9926 1.60573 33
-6.99619 22.0133 1.64559 10
-7.66136 24.0477 1.65676 10
nan nan nan nan
nan nan nan nan
-7.21473 22.8902 1.79806 33
-7.20961 22.5564 1.84359 36
-7.15067 22.6017 1.88362 3
-7.24229 22.7931 1.92472 28
-7.26648 22.8956 1.96612 17
-7.13218 22.4031 2.00821 12
-7.05666 22.4636 2.04781 20
nan nan nan nan
-3.84767 12.2195 2.07181 49
-3.9384 12.3322 2.09592 131
-3.89932 12.2865 2.14003 135
-3.91534 12.3173 2.1855 135
-3.91757 12.3107 2.23047 132
-3.92057 12.2932 2.27525 136
-3.86521 12.3167 2.43183 136
-3.8874 12.2946 2.65664 136
-3.87834 12.2844 3.00495 136
-7.32393 23.195 4.5392 14
nan nan nan nan
nan nan nan nan
nan nan nan nan
-0.501142 1.56307 1.23337 3
-0.715996 2.22334 1.15741 3
nan nan nan nan
nan nan nan nan
-0.726849 2.30271 1.48203 3
nan nan nan nan
-0.552921 1.75411 1.68967 5
-0.548081 1.73465 1.72163 6
-0.557722 1.77138 1.73838 1
-0.563499 1.77187 1.75437 3
-0.567517 1.79787 1.76062 1
-0.573409 1.82863 1.76816 1
-0.58123 1.84328 1.77661 3
-0.591331 1.86172 1.781 4
-0.60795 1.904 1.78274 4
-0.605915 1.93679 1.78617 5
-0.615777 1.95542 1.7911 4
-0.631976 1.99278 1.79417 4
-0.648651 2.0351 1.79738 4
-0.650719 2.08221 1.79992 4
-0.668161 2.12453 1.80341 3
-0.689792 2.17063 1.80682 3
-0.728303 2.28963 1.80422 3
-0.741523 2.36465 1.80633 4
-0.750733 2.38869 1.81296 3
-3.87748 12.2425 1.06477 3
-3.89653 12.3129 1.10456 3
-3.98949 12.7001 1.12298 4
-4.01122 12.7802 1.16427 35
-4.01976 12.8679 1.18213 31
-4.04994 12.7971 1.20995 38
-4.05921 12.9578 1.22379 37
-4.14001 13.1011 1.23908 31
-4.12724 13.1589 1.25983 31
-4.14775 13.2219 1.28046 32
-4.21629 13.4216 1.29409 32
-4.33641 13.8353 1.29751 20
-4.38894 14.061 1.31425 30
nan nan nan nan
-4.35893 13.926 1.36925 31
nan nan nan nan
nan nan nan nan
-4.49884 14.3515 1.42858 32
-4.62006 14.7178 1.44083 32
-4.70515 15.0325 1.4562 17
-6.88567 21.9699 1.24377 20
-6.88615 21.9029 1.28625 19
-6.94299 22.0958 1.32031 10
-6.91795 21.9477 1.36517 12
-6.80413 21.8796 1.40647 9
-6.90169 21.8817 1.44715 18
-6.82979 21.9053 1.48593 36
-6.83911 21.8667 1.53097 20
-6.90931 22.076 1.56279 25
-6.96001 22.1551 1.60194 28
-6.9702 22.1997 1.64166 14
-7.50235 23.8358 1.65879 12
-7.53459 24.261 1.69582 7
-7.2984 23.1569 1.75335 9
-7.20317 23.1348 1.79476 25
-7.15794 22.6673 1.84166 17
-7.0022 22.4177 1.88335 1
-7.1073 22.6417 1.924 28
-7.03998 22.4532 1.96555 14
-7.05995 22.4469 2.0069 10
-6.9797 22.4929 2.04651 23
-7.09827 22.5396 2.08943 9
-3.81243 12.2567 2.07124 62
-3.90287 12.3697 2.09538 130
-3.8654 12.3286 2.13963 133
-3.88132 12.3596 2.1852 131
-3.88359 12.3529 2.23028 130
-3.88667 12.3354 2.27517 135
-3.82962 12.354 2.43194 133
-3.84682 12.3231 2.65665 137
-3.84077 12.3224 3.00614 134
-7.24603 23.23 4.53889 23
nan nan nan nan
nan nan nan nan
nan nan nan nan
-0.495094 1.56495 1.23326 1
-0.719551 2.26157 1.14348 4
nan nan nan nan
nan nan nan nan
nan nan nan nan
nan nan nan nan
-0.54678 1.75602 1.68957 95
-0.542009 1.73654 1.72153 45
-0.550903 1.77349 1.73827 1
-0.55878 1.77855 1.75359 1
-0.562695 1.80456 1.75987 4
-0.568489 1.83534 1.76743 1
-0.574781 1.84529 1.7765 3
-0.586301 1.8685 1.78032 4
-0.602776 1.91084 1.78207 4
-0.600615 1.94363 1.78552 3
-0.617808 1.98604 1.78786 4
-0.630941 2.01395 1.79203 3
-0.644506 2.04684 1.79629 3
-0.649334 2.10347 1.79792 4
-0.663689 2.13636 1.80238 3
-0.685179 2.18252 1.80582 3
-0.72327 2.30166 1.80325 3
-0.737696 2.38149 1.80499 4
-0.745341 2.40081 1.81206 3
-0.77438 2.47076 1.81534 4
-0.891545 2.84226 1.79712 6
-3.96285 12.7711 1.11828 6
-3.99463 12.8846 1.15758 20
-3.98498 12.9309 1.17826 31
-4.01117 12.8302 1.20802 36
-4.03015 13.0243 1.21988 32
-4.10166 13.1393 1.23692 30
-4.06499 13.1207 1.26204 33
-4.10154 13.2363 1.27969 31
nan nan nan nan
-4.32056 13.9553 1.29134 32
-4.34811 14.1207 1.31124 33
-4.39884 14.0904 1.33599 1
-4.34566 14.0557 1.36322 25
-4.44682 14.266 1.37978 30
-4.50985 14.5666 1.39315 34
-4.50636 14.5532 1.42028 33
-4.62637 14.9199 1.43285 37
-4.74562 15.3496 1.44437 8
nan nan nan nan
-6.81408 21.9411 1.28451 17
-6.87617 22.1533 1.31799 10
-6.84573 21.986 1.36347 9
-6.76881 22.037 1.40155 23
-6.90706 22.1681 1.4392 17
-6.83715 22.2012 1.47822 12
-6.84684 22.1627 1.52381 19
-6.82947 22.1322 1.56074 23
-6.86633 22.1267 1.60161 17
nan nan nan nan
-7.00517 22.5298 1.67669 11
nan nan nan nan
-7.18481 23.0772 1.75314 31
-7.1606 23.284 1.79229 36
-7.07431 22.6778 1.84044 17
-6.95878 22.583 1.88117 1
-7.04748 22.7284 1.92247 34
-6.96454 22.4872 1.96423 23
-6.9875 22.4905 2.0056 28
-6.99352 22.8182 2.04578 33
-7.03888 22.6263 2.08835 10
-3.77845 12.2986 2.07068 67
-3.87158 12.4214 2.09494 129
-3.83122 12.3707 2.13923 89
-3.84705 12.4017 2.1849 131
-3.85086 12.3999 2.23017 129
-3.85847 12.3967 2.2755 134
-3.807 12.4342 2.43355 132
-3.82597 12.4237 2.66043 134
-3.79642 12.3466 3.00613 132
-7.16797 23.2648 4.53857 17
nan nan nan nan
nan nan nan nan
nan nan nan nan
-0.489069 1.56208 1.23535 44
-0.711609 2.26403 1.14335 3
-0.582588 1.87334 1.42669 4
nan nan nan nan
-0.49972 1.62649 1.63783 1
nan nan nan nan
-0.537727 1.74849 1.69118 1
-0.535931 1.7384 1.72143 3
-0.545627 1.77511 1.73818 1
-0.552557 1.78047 1.75349 3
-0.556382 1.8065 1.75976 1
-0.562068 1.83731 1.76733 1
-0.569788 1.85202 1.7758 3
-0.581232 1.87527 1.77964 4
-0.597562 1.91767 1.7814 4
-0.595274 1.95046 1.78487 3
-0.605015 1.96916 1.78983 3
-0.620964 2.00663 1.79293 4
-0.638818 2.05382 1.79568 3
-0.637606 2.09144 1.79921 4
-0.654757 2.13389 1.80271 3
-0.676076 2.18013 1.80613 3
-0.718162 2.31369 1.80228 3
-0.72937 2.38405 1.80485 4
-0.741335 2.41768 1.81077 3
-0.768686 2.48297 1.81446 4
-0.888961 2.86917 1.79522 6
-3.93137 12.8277 1.11455 8
-3.95544 12.9175 1.15557 23
-3.95319 12.9563 1.17675 36
-3.96485 12.8393 1.20757 36
-4.0065 13.1098 1.21481 31
-4.06455 13.1821 1.23448 28
-4.01036 13.1061 1.26289 34
-4.04798 13.2266 1.28023 23
-4.47083 14.5869 1.23241 16
-4.27617 13.9846 1.2898 33
-4.34942 14.2665 1.30402 28
-4.30694 13.9672 1.34173 31
-4.31259 14.1233 1.36001 32
-4.41313 14.3339 1.37666 30
-4.44579 14.5392 1.3941 30
-4.45405 14.564 1.41963 32
-4.59327 14.998 1.42961 31
-4.68908 15.3565 1.44382 14
-6.67217 21.8214 1.248 14
nan nan nan nan
-6.77828 22.1103 1.31878 10
-6.78948 22.0766 1.36025 30
-6.71216 22.1274 1.39844 17
-6.80315 22.106 1.4401 31
-6.73632 22.1484 1.47875 25
-6.75921 22.153 1.52325 28
-6.77252 22.181 1.55907 23
-6.79051 22.1553 1.60023 29
-6.85895 22.3912 1.63673 14
-6.90594 22.4872 1.67636 14
nan nan nan nan
-7.0263 22.8488 1.75455 30
nan nan nan nan
-7.02015 22.7836 1.83854 26
-6.93549 22.747 1.87928 3
-6.9725 22.7672 1.9211 28
-6.89039 22.5257 1.9629 17
-7.05703 22.9975 2.00433 30
-6.90514 22.8138 2.04441 31
-6.96869 22.6794 2.08715 10
-3.74277 12.3356 2.0701 64
-3.82968 12.4397 2.09426 121
-3.79388 12.4031 2.13872 133
-3.80814 12.4294 2.18439 137
-3.82517 12.4706 2.23051 116
-3.81667 12.4148 2.27489 134
-3.76215 12.4426 2.43267 134
-3.7695 12.3783 2.65674 133
-3.76202 12.3728 3.00665 133
nan nan nan nan
nan nan nan nan
nan nan nan nan
nan nan nan nan
-0.483575 1.56374 1.23526 3
-0.684216 2.20371 1.16737 4
nan nan nan nan
nan nan nan nan
-0.492593 1.62354 1.6388 3
nan nan nan nan
-0.530169 1.74563 1.69193 3
-0.528102 1.73562 1.7221 1
-0.537979 1.77226 1.7388 3
-0.546327 1.78238 1.75339 3
-0.550061 1.80842 1.75966 3
-0.557085 1.84399 1.7666 4
-0.564429 1.85884 1.7751 3
-0.574672 1.87728 1.77953 4
-0.592307 1.92449 1.78074 4
-0.591334 1.96203 1.78367 3
-0.607894 2.00467 1.78605 3
-0.622649 2.03732 1.78978 3
-0.634542 2.06555 1.79459 3
-0.638938 2.12223 1.79627 4
-0.649811 2.1458 1.80167 3
-0.669908 2.18723 1.80557 3
-0.708619 2.3114 1.80257 3
-0.725375 2.40088 1.80351 4
-0.73824 2.43946 1.80909 3
-0.773103 2.52855 1.81103 4
-0.89056 2.91042 1.79226 6
-3.8981 12.8795 1.11116 9
-3.92969 13.0036 1.15008 29
-3.93958 13.0751 1.16928 31
-3.92726 12.8769 1.20534 36
-3.97221 13.1619 1.21175 30
-3.99959 13.1341 1.23735 32
nan nan nan nan
-3.96417 13.1163 1.28627 33
-4.35473 14.3873 1.24294 35
-4.31577 14.3013 1.27356 30
-4.30676 14.3055 1.30202 32
-4.32068 14.1876 1.33118 31
-4.37998 14.5256 1.34153 32
-4.38773 14.4304 1.37227 30
-4.3762 14.4925 1.39587 34
-4.42918 14.6655 1.41534 32
-4.49022 14.8466 1.43515 31
nan nan nan nan
-4.68789 15.5249 1.4657 8
nan nan nan nan
-6.70393 22.1433 1.3172 11
-6.71381 22.1049 1.35883 11
-6.63486 22.1507 1.39717 17
-6.72739 22.1344 1.4387 17
-6.64889 22.1383 1.47826 14
-6.73273 22.3594 1.51796 28
-6.77297 22.4629 1.55261 29
-6.8 22.466 1.59372 9
nan nan nan nan
-7.45247 24.5732 1.64502 32
-6.75834 22.5951 1.71389 13
-6.93197 22.8254 1.75375 23
nan nan nan nan
-6.94533 22.8378 1.83694 13
-6.86038 22.7854 1.87789 3
-6.89878 22.8106 1.91971 34
nan nan nan nan
-7.01296 23.1417 2.003 14
-6.81689 22.809 2.04304 30
-6.89821 22.7323 2.08594 11
-6.95846 23.2206 2.12857 19
nan nan nan nan
-7.19147 23.8125 2.26279 15
nan nan nan nan
nan nan nan nan
-6.60909 21.7805 2.47918 27
nan nan nan nan
-3.71768 12.3627 2.65451 38
nan nan nan nan
-6.89982 22.962 4.49753 30
nan nan nan nan
nan nan nan nan
nan nan nan nan
-0.477033 1.56099 1.23733 3
-0.677851 2.21054 1.16552 3
nan nan nan nan
nan nan nan nan
-0.488318 1.62991 1.63764 96
-0.482656 1.61486 1.68318 1
-0.507024 1.69085 1.7021 1
-0.517759 1.72325 1.72434 3
-0.527826 1.7598 1.74086 1
-0.538659 1.77952 1.75396 1
-0.543734 1.81032 1.75955 1
-0.550633 1.84592 1.76649 1
-0.557926 1.86079 1.77499 4
-0.569539 1.88402 1.77884 4
-0.587012 1.93129 1.78007 4
-0.584472 1.96407 1.78356 4
-0.602311 2.01153 1.78542 3
-0.615524 2.03948 1.78966 3
-0.628755 2.07251 1.79398 3
-0.632941 2.12921 1.79567 4
-0.645163 2.15758 1.80064 3
-0.666577 2.20386 1.80413 3
-0.70772 2.33771 1.80034 3
-0.719841 2.41293 1.80257 4
-0.733997 2.45634 1.8078 3
-0.771456 2.5551 1.80905 4
-0.887571 2.93738 1.79035 8
-3.85308 12.893 1.11042 10
-3.89138 13.0411 1.14776 23
-3.89047 13.0689 1.16979 29
-3.88369 12.8953 1.2043 32
-3.95043 13.257 1.20609 17
-3.95513 13.1527 1.23631 29
nan nan nan nan
-3.92976 13.1683 1.28342 43
nan nan nan nan
-4.27577 14.3498 1.27103 36
-4.24219 14.2622 1.30406 34
-4.35307 14.4752 1.31743 33
-4.31783 14.5025 1.34244 36
-4.36314 14.5318 1.36767 32
-4.31699 14.4789 1.39624 58
-4.38366 14.7 1.41372 32
-4.44264 14.8765 1.43374 39
nan nan nan nan
-6.06774 20.3386 1.2985 9
-6.62397 22.1452 1.27629 10
-6.65233 22.2527 1.31325 25
-6.65668 22.1952 1.3556 13
-6.5745 22.2312 1.39432 27
-6.66732 22.2152 1.43595 29
-6.57724 22.1805 1.47653 35
-6.64039 22.3349 1.51771 36
-6.67275 22.399 1.55311 35
-6.71295 22.4608 1.59295 20
-6.794 22.7451 1.62911 4
nan nan nan nan
-6.67801 22.6137 1.71266 12
-6.8307 22.7776 1.75322 23
-6.77298 22.8735 1.7927 17
-6.85694 22.8332 1.83583 13
-6.78907 22.8224 1.87657 3
nan nan nan nan
-6.89157 23.1051 1.95931 29
-6.829 22.8211 2.00168 11
nan nan nan nan
-7.11029 23.7285 2.08815 12
-6.9015 23.3262 2.12767 19
-6.92664 23.0837 2.16998 8
-7.16404 24.0243 2.26345 11
nan nan nan nan
-6.71855 22.4539 2.4102 9
-6.57898 21.9567 2.48127 25
nan nan nan nan
nan nan nan nan
nan nan nan nan
-6.81411 22.967 4.49414 29
nan nan nan nan
nan nan nan nan
nan nan nan nan
-0.472845 1.56693 1.23508 3
-0.642942 2.12301 1.19991 3
nan nan nan nan
nan nan nan nan
-0.481212 1.6269 1.63862 104
-0.48678 1.64946 1.67643 3
-0.499701 1.68787 1.70285 4
-0.510321 1.7203 1.72502 1
-0.521668 1.76162 1.74076 3
-0.532432 1.78138 1.75386 3
-0.5374 1.8122 1.75945 3
-0.544176 1.84782 1.76639 4
-0.551417 1.86271 1.77488 4
-0.562949 1.88599 1.77874 4
-0.574578 1.91427 1.78219 4
-0.57338 1.95179 1.78507 4
-0.575521 1.94686 1.79262 3
-0.60414 2.0273 1.79106 3
-0.634286 2.1176 1.78948 3
-0.626903 2.13617 1.79508 4
-0.63903 2.16459 1.80006 3
-0.660293 2.21093 1.80357 3
-0.702386 2.34971 1.79937 3
-0.705752 2.39631 1.80404 4
-0.72541 2.45888 1.80766 4
-0.769633 2.58167 1.80707 4
-0.888665 2.9787 1.78739 9
-3.8165 12.935 1.10769 11
-3.84438 13.0497 1.14733 23
-3.83829 13.0687 1.16992 17
-3.92963 13.2149 1.18456 23
-3.92662 13.3473 1.20072 28
-3.98724 13.4297 1.22018 20
nan nan nan nan
nan nan nan nan
-4.06327 13.7707 1.2755 20
-4.10441 13.9526 1.29126 25
nan nan nan nan
-4.29254 14.4567 1.31818 35
nan nan nan nan
-4.31237 14.5469 1.36683 35
-4.26358 14.4843 1.39581 38
-4.28288 14.5475 1.41961 35
-4.39915 14.9206 1.43179 34
-4.4492 15.1465 1.45058 8
-6.47669 21.9895 1.24079 34
-6.54802 22.173 1.27486 11
-6.57035 22.2614 1.31242 13
-6.61886 22.3524 1.3504 17
-6.51086 22.302 1.39173 6
-6.6025 22.2814 1.43357 0
-6.49696 22.1937 1.47549 14
-6.55533 22.3339 1.51695 32
-6.53527 22.2207 1.55588 31
-6.58074 22.3019 1.595 13
-6.65095 22.5529 1.63136 6
-6.69983 22.6589 1.67099 12
-6.60043 22.6417 1.7113 12
-6.72985 22.7293 1.7527 32
-6.69872 22.9162 1.79121 17
-6.96199 23.4801 1.82994 37
-6.80376 23.1674 1.87347 1
nan nan nan nan
-6.80241 23.1003 1.95803 25
nan nan nan nan
-6.6813 22.9377 2.04056 30
-7.00757 23.686 2.08655 33
-6.83408 23.3982 2.12659 17
-7.19546 24.2871 2.17715 8
-6.65242 22.5959 2.24636 11
-7.13416 24.1988 2.35184 9
-6.45597 21.854 2.39762 9
-6.69379 22.6266 2.49409 25
nan nan nan nan
-6.59445 22.4842 3.18495 12
nan nan nan nan
-6.73963 23.0098 4.49489 28
nan nan nan nan
nan nan nan nan
nan nan nan nan
-0.465035 1.55982 1.23932 3
-0.639513 2.1387 1.19461 3
nan nan nan nan
nan nan nan nan
-0.475512 1.62856 1.63852 3
-0.478242 1.64171 1.67824 3
-0.496565 1.69905 1.70105 4
-0.507079 1.73154 1.72336 1
-0.5172 1.76808 1.73994 3
-0.527597 1.78797 1.75308 1
-0.532446 1.81881 1.75869 3
-0.539106 1.85446 1.76566 4
-0.546295 1.86938 1.77418 3
-0.557752 1.89269 1.77805 4
-0.570688 1.92579 1.78096 3
-0.567944 1.95854 1.78442 4
-0.570106 1.95362 1.79199 3
-0.59845 2.03416 1.79044 3
-0.629687 2.12934 1.78838 3
-0.619433 2.13834 1.79496 4
-0.631461 2.1668 1.79994 3
-0.652563 2.21322 1.80344 3
-0.695574 2.35692 1.79882 3
-0.709943 2.4418 1.80028 4
-0.725184 2.49011 1.80521 4
-0.767634 2.60825 1.80509 4
-0.889481 3.02007 1.78442 10
-3.77407 12.9578 1.10628 12
-3.79738 13.0582 1.14689 32
-3.79857 13.0854 1.16894 37
-3.87783 13.2094 1.18499 30
-3.88554 13.3801 1.1988 35
-3.9403 13.4435 1.21941 34
-3.88965 13.3764 1.24767 30
nan nan nan nan
-4.00537 13.7512 1.27649 34
nan nan nan nan
-4.01141 13.8302 1.32508 29
nan nan nan nan
-4.03837 13.9181 1.3688 38
-4.26574 14.5762 1.36537 33
-4.21158 14.4942 1.39519 34
-4.23485 14.5719 1.4184 36
-4.35679 14.9694 1.42964 43
-4.40185 15.1811 1.44901 19
-4.49415 15.4467 1.46744 33
-6.47195 22.2005 1.27343 8
-6.48979 22.2746 1.31144 25
-6.51695 22.2938 1.35151 12
-6.43434 22.3293 1.39032 14
-6.51344 22.2659 1.43328 14
-6.41666 22.2066 1.47445 8
-6.45784 22.2894 1.51714 11
-6.45736 22.2279 1.55496 9
-6.51683 22.3727 1.59284 23
-6.52049 22.3983 1.633 14
-6.62209 22.6869 1.66962 28
-6.52965 22.6934 1.70964 20
-6.64065 22.7191 1.75177 36
-6.60482 22.8914 1.79035 17
nan nan nan nan
nan nan nan nan
-6.81742 23.424 1.91372 32
-6.80964 23.4263 1.95611 25
nan nan nan nan
-6.7035 23.3164 2.03982 29
-6.49157 22.2274 2.08 32
-6.3063 21.8749 2.11712 28
-6.46499 22.1046 2.16 8
-6.88879 23.7041 2.25673 9
-6.72713 23.1146 2.3345 9
nan nan nan nan
-6.54053 22.3956 2.48728 31
-6.86017 23.8818 2.82051 7
-6.51576 22.4916 3.18298 10
-6.61404 22.8673 3.84818 6
nan nan nan nan
nan nan nan nan
nan nan nan nan
nan nan nan nan
-0.458277 1.55708 1.24139 3
nan nan nan nan
nan nan nan nan
-0.803117 2.72698 1.29334 3
-0.79561 2.7511 1.38263 4
-0.479314 1.66694 1.67339 1
-0.505685 1.75281 1.69153 5
-0.505138 1.74752 1.72092 3
-0.515127 1.78413 1.73768 3
-0.522723 1.79455 1.7523 4
-0.526082 1.82065 1.75859 1
-0.533996 1.86108 1.76494 4
-0.542511 1.88081 1.77289 4
-0.552515 1.89939 1.77737 4
-0.563952 1.92776 1.78085 4
-0.562468 1.96528 1.78376 4
-0.564651 1.96036 1.79135 3
-0.594104 2.04578 1.78931 4
-0.625014 2.14108 1.78728 3
-0.616078 2.15483 1.79342 4
-0.630773 2.1929 1.79754 3
-0.646213 2.22026 1.80288 3
-0.687334 2.35932 1.79868 3
-0.704166 2.45384 1.79934 4
-0.720613 2.50699 1.80391 4
-0.766846 2.63964 1.80273 5
-0.885858 3.0471 1.7825 13
-3.72878 12.9709 1.10554 12
-3.73659 13.0186 1.14962 37
-3.82884 13.3727 1.15069 34
-3.83305 13.2276 1.18394 34
-3.83603 13.3839 1.19862 36
-3.885 13.4283 1.22032 39
-3.83739 13.3707 1.24799 30
-3.87152 13.487 1.26592 35
-3.94903 13.7363 1.27723 42
-3.91878 13.6736 1.30536 37
-3.96067 13.8448 1.32425 30
-4.04852 13.9921 1.33998 35
-4.01035 14.0042 1.36472 25
-4.12893 14.2934 1.37757 29
-4.15129 14.4752 1.39577 25
-4.18669 14.5962 1.41718 32
-4.33072 15.0758 1.42529 43
-4.35432 15.2156 1.44744 19
-4.43881 15.4575 1.46672 10
-6.38887 22.2037 1.2728 17
-6.38436 22.201 1.31316 20
-6.40307 22.1915 1.35389 23
-6.3194 22.2218 1.39262 9
-6.40237 22.1732 1.43496 23
-6.39531 22.4259 1.46849 14
-6.35113 22.2109 1.51807 23
nan nan nan nan
nan nan nan nan
-7.12816 24.8091 1.59217 5
-6.54424 22.7147 1.66825 4
nan nan nan nan
-6.83999 23.7077 1.73976 32
-6.51392 22.8758 1.7894 17
-6.68271 23.1295 1.83022 5
-6.62665 23.1459 1.87127 3
-6.65557 23.1689 1.91345 29
-6.71544 23.4067 1.95487 30
-6.786 23.5737 1.99761 30
-6.57293 23.1665 2.03823 28
-6.42228 22.2787 2.07883 31
-6.48722 22.8009 2.12057 28
-6.43358 22.2855 2.15985 25
-6.3085 21.993 2.23685 12
-6.29879 21.927 2.31585 9
-6.52189 22.6576 2.40876 5
-6.27265 21.7602 2.47178 25
-6.16064 21.7326 2.74479 7
-6.43454 22.5046 3.18119 10
-6.5507 22.9478 3.85152 6
-6.38818 22.387 4.41985 25
nan nan nan nan
nan nan nan nan
nan nan nan nan
-0.450286 1.54997 1.24563 3
nan nan nan nan
-0.631509 2.19348 1.32997 3
-0.789517 2.71576 1.29685 3
-0.790012 2.76792 1.37926 3
-0.477519 1.68275 1.67045 3
-0.500902 1.75928 1.69057 5
-0.501734 1.75876 1.71926 3
-0.510238 1.79066 1.73686 4
-0.517808 1.80112 1.75152 3
-0.521065 1.82723 1.75784 3
-0.527485 1.86293 1.76483 4
-0.535931 1.88268 1.77278 4
-0.548605 1.91085 1.77611 4
-0.558579 1.93448 1.78018 4
-0.556952 1.972 1.78311 4
-0.557795 1.96231 1.79124 3
-0.587958 2.05272 1.78868 4
-0.616157 2.13845 1.78765 3
-0.608544 2.15696 1.7933 4
-0.623105 2.19508 1.79742 3
-0.641194 2.23207 1.80188 3
-0.688672 2.39523 1.79561 3
-0.699676 2.47065 1.79799 4
-0.715934 2.52386 1.80262 4
-0.771335 2.69024 1.79891 5
-0.887538 3.09333 1.77918 12
-3.68481 12.9886 1.10447 30
-3.68837 13.0219 1.14951 25
-3.78482 13.3955 1.14932 33
-3.79368 13.2648 1.18169 36
-3.79061 13.402 1.19757 33
-3.83397 13.4274 1.2204 36
-3.81654 13.4752 1.24207 32
-3.82167 13.4908 1.26568 29
-3.89422 13.7259 1.27772 28
-3.87372 13.6967 1.3041 33
-3.91365 13.8633 1.32323 37
-3.99963 14.0061 1.33918 43
-4.04287 14.3065 1.35075 29
-4.0872 14.3365 1.3755 32
-4.09663 14.4752 1.39555 33
nan nan nan nan
-4.30395 15.1821 1.42093 32
-4.35141 15.4086 1.44007 32
-4.38481 15.4729 1.46585 8
nan nan nan nan
-6.29998 22.1991 1.31265 13
-6.36932 22.3676 1.34812 8
-6.24178 22.2437 1.39136 23
-6.38658 22.4117 1.42815 20
-6.25874 22.2412 1.47215 33
-6.27355 22.2329 1.51681 32
-6.36869 22.508 1.54766 30
-6.38911 22.5186 1.58843 23
-6.40485 22.5875 1.62805 17
-6.46901 22.7518 1.66675 31
nan nan nan nan
-6.46271 22.6976 1.74993 31
-6.5152 23.1872 1.7854 29
-6.62525 23.2344 1.82829 28
-6.55534 23.2025 1.86976 3
-6.56921 23.1728 1.91221 29
-6.66638 23.5455 1.95329 29
-6.70232 23.5924 1.99627 10
-6.65388 23.7671 2.03778 20
-6.3527 22.3299 2.07766 13
-6.29406 22.4191 2.11721 23
-6.39139 22.4329 2.15946 14
-6.67143 23.5844 2.25217 29
-6.39395 22.555 2.32323 11
-6.30203 22.1849 2.39861 29
-6.22952 21.8974 2.47303 29
-6.08344 21.7492 2.7434 6
nan nan nan nan
nan nan nan nan
-6.31283 22.4188 4.41962 23
nan nan nan nan
nan nan nan nan
nan nan nan nan
-0.444835 1.5515 1.24554 3
nan nan nan nan
-0.872879 3.07596 1.05594 3
-0.614955 2.14048 1.44863 3
-0.820225 2.91161 1.34698 3
-0.472957 1.68911 1.6694 3
-0.494743 1.76101 1.69047 3
-0.495579 1.76049 1.71916 1
-0.503972 1.79242 1.73676 3
-0.511191 1.80299 1.75141 3
-0.514672 1.82903 1.75773 3
-0.522312 1.86952 1.76411 4
-0.53069 1.88931 1.77208 4
-0.541587 1.91283 1.77599 4
-0.554519 1.94597 1.77895 4
-0.552736 1.9835 1.78192 4
-0.554965 1.9786 1.78956 3
-0.583117 2.06442 1.78755 3
-0.612738 2.15495 1.78606 3
-0.605023 2.17344 1.79176 4
-0.616774 2.20203 1.79684 3
-0.638417 2.25356 1.8 3
-0.680298 2.39761 1.79547 3
-0.696424 2.49226 1.79624 4
-0.711145 2.54074 1.80132 4
-0.772293 2.73143 1.79581 5
nan nan nan nan
-3.63941 13.0013 1.10374 12
-3.64151 13.0299 1.14908 30
-3.72594 13.3654 1.15132 28
-3.73281 13.2354 1.18358 37
-3.74511 13.4199 1.19652 29
-3.79516 13.4695 1.21795 28
-3.76676 13.4788 1.24185 31
-3.7678 13.48 1.26623 29
-3.84086 13.7202 1.27796 29
-3.82586 13.7101 1.30332 33
-3.86253 13.8672 1.32291 33
-3.94824 14.0206 1.33835 30
-3.97009 14.2387 1.35368 29
-4.05063 14.3988 1.37257 41
-4.04336 14.4797 1.39514 36
-4.17879 14.9618 1.40197 32
-4.24686 15.1826 1.42062 34
-4.30563 15.4526 1.43814 31
-4.3173 15.4399 1.46664 34
-4.35048 15.5354 1.49149 5
-6.22513 22.2305 1.31109 9
-6.28173 22.3559 1.34784 20
-6.16541 22.2701 1.38997 14
-6.31913 22.4724 1.42588 9
-6.22519 22.4218 1.4671 14
-6.19723 22.2594 1.51545 29
-6.23631 22.3375 1.55029 9
nan nan nan nan
nan nan nan nan
nan nan nan nan
nan nan nan nan
-6.45921 22.9895 1.74562 34
-6.43289 23.205 1.78414 20
-6.55766 23.3055 1.82661 25
-6.48372 23.259 1.86825 1
nan nan nan nan
-6.59223 23.5975 1.9519 20
-6.61994 23.6156 1.99494 21
-6.5376 23.6697 2.03626 11
nan nan nan nan
nan nan nan nan
nan nan nan nan
nan nan nan nan
-6.2008 22.1679 2.31615 29
-6.17734 22.0383 2.39435 28
-6.08823 21.688 2.46683 8
-6.00754 21.7703 2.74217 25
-6.44347 23.1456 3.20981 8
-6.25574 22.508 3.8099 6
-6.23866 22.4552 4.4199 13
nan nan nan nan
nan nan nan nan
nan nan nan nan
-0.439379 1.55302 1.24545 3
nan nan nan nan
-0.842772 3.00975 1.07728 3
nan nan nan nan
-0.453971 1.63968 1.63708 1
-0.4723 1.70966 1.6655 4
-0.478017 1.72474 1.69723 1
-0.488094 1.75743 1.71984 3
-0.495056 1.78462 1.7381 1
-0.503936 1.80501 1.7513 1
-0.508273 1.83081 1.75763 1
-0.515772 1.87132 1.764 4
-0.524081 1.89114 1.77198 4
-0.535222 1.91977 1.77529 4
-0.547712 1.94789 1.77884 4
-0.545799 1.9854 1.78181 4
-0.546718 1.97572 1.78997 3
-0.576506 2.07143 1.78691 3
-0.605202 2.15706 1.78594 3
-0.597423 2.17553 1.79164 4
-0.609075 2.20416 1.79671 3
-0.629749 2.25599 1.79985 3
-0.679932 2.42876 1.79282 3
-0.689041 2.49947 1.7957 4
-0.706247 2.55761 1.80002 4
-0.769803 2.76319 1.79343 6
-3.66053 13.1473 1.04593 6
-3.59529 13.0187 1.10267 33
-3.60791 13.0858 1.14551 25
-3.65541 13.2916 1.1561 30
-3.68861 13.2736 1.18127 32
-3.69556 13.4233 1.19634 31
-3.75477 13.5067 1.21579 30
-3.71833 13.487 1.24136 38
-3.72335 13.5026 1.26494 29
-3.80755 13.7864 1.27438 20
-3.78325 13.7426 1.30156 29
-3.81407 13.8806 1.32213 29
-3.89969 14.0549 1.33656 29
-3.91372 14.2283 1.35398 35
-3.99364 14.3887 1.37282 35
-3.99543 14.5033 1.39392 30
-4.1119 14.9233 1.40326 34
-4.19249 15.1925 1.41995 29
-4.21588 15.3374 1.44203 36
nan nan nan nan
-6.17225 22.3892 1.26495 25
-6.15013 22.2617 1.30953 17
-6.21031 22.4018 1.34587 25
nan nan nan nan
-6.88096 24.8013 1.36527 11
nan nan nan nan
nan nan nan nan
nan nan nan nan
nan nan nan nan
-6.17387 22.3666 1.62992 5
nan nan nan nan
-6.16742 22.6183 1.70664 30
-6.36155 22.9493 1.74503 29
-6.33867 23.179 1.78328 23
-6.50035 23.4149 1.82463 29
-6.40117 23.2766 1.86697 3
-6.55158 23.8059 1.90699 28
nan nan nan nan
-6.62672 23.9615 1.99348 13
-6.5378 23.9963 2.03535 11
-6.64262 23.983 2.08037 11
-6.00166 21.9657 2.11219 13
-6.61291 23.8404 2.16631 17
-6.30888 22.9589 2.24224 9
-6.07025 21.9966 2.31218 13
-6.11774 22.1224 2.39422 20
-6.03387 21.7862 2.46725 25
nan nan nan nan
-6.45132 23.4906 3.22532 32
-6.20229 22.6212 3.81597 11
-6.58605 24.031 4.58594 11
nan nan nan nan
nan nan nan nan
nan nan nan nan
-0.432433 1.55024 1.24752 1
nan nan nan nan
nan nan nan nan
-0.858303 3.07406 1.20446 3
-0.43655 1.59886 1.64663 3
-0.465015 1.70655 1.66635 3
-0.468068 1.71214 1.69971 4
-0.483249 1.76388 1.71896 2
-0.491107 1.79596 1.73655 1
-0.498568 1.80649 1.75121 4
-0.503171 1.83734 1.75687 1
-0.510537 1.87789 1.76327 4
-0.520087 1.90252 1.77068 4
-0.53083 1.92613 1.77462 4
-0.543538 1.95936 1.77762 4
-0.54147 1.99688 1.78061 4
-0.54243 1.9872 1.78881 3
-0.571665 2.07792 1.7863 3
-0.597659 2.15915 1.78582 3
-0.591123 2.1824 1.79104 4
-0.603989 2.21587 1.79568 3
-0.623972 2.26275 1.7993 4
-0.668802 2.4215 1.79352 3
-0.680303 2.50185 1.79556 4
-0.705173 2.58891 1.79756 4
-0.769033 2.79443 1.79108 6
-3.61325 13.1552 1.04554 6
-3.56685 13.0937 1.0976 17
-3.58444 13.1801 1.1394 31
-3.56747 13.1604 1.16454 32
-3.64289 13.2707 1.18149 31
-3.63035 13.3686 1.19965 25
-3.70756 13.5196 1.21502 35
-3.66988 13.4951 1.24088 36
-3.68665 13.5541 1.26207 32
-3.76594 13.8237 1.27233 29
-3.73654 13.7606 1.30054 28
-3.76445 13.8992 1.32108 33
-3.83833 14.0044 1.33883 1
-3.79604 13.9912 1.36463 30
-3.94073 14.3929 1.37243 31
-4.01294 14.7679 1.38256 30
-4.05452 14.9183 1.4032 32
-4.14729 15.2359 1.41798 37
-4.23684 15.6269 1.4311 14
nan nan nan nan
-6.06763 22.252 1.26904 9
nan nan nan nan
nan nan nan nan
-6.69652 24.8607 1.31713 8
-6.79433 24.8251 1.36387 11
nan nan nan nan
nan nan nan nan
nan nan nan nan
-6.10038 22.3913 1.58818 4
-6.12332 22.4893 1.62696 12
-6.15406 22.5385 1.66706 31
-6.1352 22.8135 1.70309 11
-6.3566 23.2462 1.74064 28
nan nan nan nan
nan nan nan nan
-6.31451 23.2951 1.86562 1
-6.47196 23.7758 1.90611 30
-6.66467 24.5162 1.94727 14
nan nan nan nan
-6.46051 24.0431 2.03404 30
-5.99597 21.9466 2.07243 9
-6.48584 24.0672 2.12125 12
-6.51912 23.8248 2.1647 17
nan nan nan nan
-6.4226 23.5952 2.33308 11
nan nan nan nan
-5.94992 21.7782 2.46541 8
-5.89051 21.9421 2.74413 8
-6.16694 22.7815 3.18582 23
-6.23649 23.0769 3.84935 10
-6.01846 22.2631 4.39208 9
nan nan nan nan
nan nan nan nan
nan nan nan nan
-0.426982 1.55171 1.24743 1
nan nan nan nan
-0.77143 2.83059 1.13433 3
-0.851374 3.09103 1.20061 3
-0.43223 1.60507 1.64547 4
-0.465446 1.73184 1.6615 3
-0.464648 1.72326 1.69789 4
-0.475786 1.76077 1.71964 3
-0.482248 1.78809 1.73789 4
-0.493545 1.81299 1.75043 3
-0.496743 1.83908 1.75677 3
-0.503968 1.87965 1.76317 4
-0.513432 1.90432 1.77058 4
-0.524093 1.92796 1.77452 4
-0.535382 1.95644 1.77806 4
-0.534486 1.99875 1.7805 4
-0.534186 1.98428 1.78922 3
-0.566997 2.0895 1.78517 3
-0.590109 2.16122 1.78569 3
-0.584783 2.18925 1.79045 4
-0.597535 2.22277 1.7951 3
-0.618668 2.27452 1.7983 3
-0.665546 2.44305 1.7917 3
-0.679332 2.53308 1.793 4
-0.700006 2.60579 1.79626 4
-0.76448 2.81634 1.78945 8
-3.56597 13.1628 1.04515 6
-3.52238 13.1109 1.09653 28
-3.53062 13.1636 1.14055 35
-3.52921 13.2017 1.16196 29
-3.56392 13.1628 1.18822 31
-3.58621 13.3908 1.19832 30
-3.66292 13.5421 1.2137 32
-3.62402 13.5126 1.23985 36
-3.64317 13.5813 1.26052 33
-3.65541 13.6052 1.28381 17
-3.69621 13.8024 1.29829 33
-3.73779 13.9943 1.31627 34
-3.7868 14.0081 1.3385 28
-3.7536 14.0284 1.36275 32
-3.84621 14.2426 1.37882 31
-3.98723 14.8783 1.37767 32
-4.01534 14.9805 1.40042 28
-3.99946 14.898 1.43068 39
-4.17063 15.5981 1.43182 34
nan nan nan nan
-6.00676 22.3358 1.26572 9
-6.05157 22.5164 1.3004 5
nan nan nan nan
nan nan nan nan
nan nan nan nan
nan nan nan nan
-6.63216 24.8247 1.45662 20
-6.58117 24.5804 1.50206 9
-6.61098 24.6043 1.54623 35
nan nan nan nan
-6.60025 24.5102 1.63664 8
-6.10938 23.0377 1.69914 11
-6.24547 23.1572 1.74059 28
-6.23326 23.4353 1.77865 11
-6.21678 23.0157 1.82541 28
nan nan nan nan
-6.48096 24.1411 1.90337 23
-6.37975 23.7956 1.94761 11
-6.45801 24.0023 1.99079 29
nan nan nan nan
-6.4998 24.1205 2.07796 9
-6.38254 24.0172 2.11955 8
-6.42291 23.7991 2.16304 25
-5.93161 22.1288 2.23093 30
-6.00728 22.3765 2.31443 23
-6.22569 23.1397 2.40889 11
-6.64003 24.6419 2.52451 8
-6.22966 23.5325 2.79593 6
nan nan nan nan
nan nan nan nan
-6.48499 24.3265 4.61007 10
nan nan nan nan
nan nan nan nan
nan nan nan nan
-0.421525 1.55316 1.24735 1
nan nan nan nan
nan nan nan nan
-0.832947 3.06587 1.20779 3
-0.427872 1.61128 1.64431 4
-0.456852 1.72395 1.66331 4
-0.458616 1.72486 1.6978 4
-0.469623 1.76241 1.71955 4
-0.477261 1.79454 1.73707 4
-0.4888 1.81939 1.74966 4
-0.491578 1.84558 1.75602 3
-0.499947 1.89097 1.76182 4
-0.508048 1.91088 1.76988 4
-0.51897 1.93447 1.77384 4
-0.531112 1.96788 1.77683 4
-0.528769 2.0054 1.77984 4
-0.529801 1.99573 1.78806 3
-0.562622 2.10097 1.78404 3
-0.588982 2.18729 1.78313 3
-0.579675 2.20089 1.78938 4
-0.591041 2.22964 1.79452 3
-0.612402 2.28136 1.79774 3
-0.662148 2.4646 1.78988 3
-0.673035 2.54506 1.79205 4
-0.701117 2.64676 1.79302 4
-0.761566 2.84294 1.78746 8
-3.51996 13.1752 1.04441 9
-3.4676 13.0893 1.09814 42
-3.49737 13.224 1.13665 32
-3.51105 13.32 1.15444 31
-3.52279 13.1842 1.18692 31
-3.53432 13.3839 1.19873 36
-3.60531 13.5162 1.2152 35
-3.56402 13.4769 1.24182 31
-3.55738 13.4491 1.26769 33
-3.58996 13.5503 1.28663 25
-3.66328 13.8731 1.29456 31
-3.6838 13.9879 1.31643 33
-3.73515 14.0012 1.33867 36
-3.67785 13.94 1.3666 34
-3.77076 14.1593 1.38226 30
nan nan nan nan
-3.92851 14.864 1.40484 37
-3.93973 14.8829 1.43096 17
nan nan nan nan
nan nan nan nan
-5.84934 22.0416 1.27491 28
-6.6064 24.9288 1.2244 7
nan nan nan nan
nan nan nan nan
nan nan nan nan
-6.46401 24.6095 1.4115 24
-6.47923 24.5963 1.46077 19
nan nan nan nan
-6.61004 24.9305 1.53926 10
-6.21687 23.4787 1.60853 8
-6.08889 22.9288 1.65931 28
-6.00362 22.9621 1.69913 36
-6.13503 23.0677 1.74055 34
-6.17552 23.5488 1.77646 25
-6.23551 23.4092 1.82124 36
-6.03196 22.8841 1.86573 3
-6.39448 24.1383 1.90219 34
-6.49465 24.567 1.94451 39
-6.54336 24.6627 1.9891 36
nan nan nan nan
-6.32823 23.8145 2.0756 28
-6.25812 23.8846 2.11746 8
nan nan nan nan
-5.86333 22.1677 2.22996 28
-5.86523 22.1557 2.30982 17
-5.882 22.1708 2.39024 10
nan nan nan nan
-5.68427 21.7796 2.73484 32
-6.09179 23.1428 3.19978 6
-5.96396 22.6958 3.81287 29
-6.40398 24.3635 4.61026 12
nan nan nan nan
nan nan nan nan
nan nan nan nan
-0.405581 1.5154 1.26673 1
nan nan nan nan
nan nan nan nan
-0.807211 3.01253 1.22234 3
-0.427219 1.63163 1.63993 4
-0.449567 1.72077 1.66416 3
-0.453831 1.7312 1.69684 13
-0.463455 1.76403 1.71945 3
-0.470982 1.79618 1.73697 6
-0.482434 1.82108 1.74956 3
-0.486374 1.85207 1.75526 3
-0.493332 1.89269 1.76172 4
-0.502624 1.91744 1.76917 4
-0.51347 1.94107 1.77315 4
-0.525498 1.97452 1.77616 4
-0.524269 2.01684 1.77865 4
-0.524082 2.00237 1.78743 3
-0.556541 2.10772 1.78342 3
-0.581333 2.18932 1.783 3
-0.573236 2.2077 1.78878 4
-0.585765 2.24132 1.79348 3
-0.604426 2.28348 1.79761 3
-0.656069 2.47652 1.7889 4
-0.666662 2.55702 1.7911 4
-0.700689 2.68294 1.79017 5
-0.759253 2.8745 1.78509 9
-3.47264 13.1825 1.04403 8
-3.46475 13.2654 1.08604 36
-3.45997 13.2699 1.1337 32
-3.45948 13.3128 1.15493 33
-3.50595 13.3074 1.1793 29
-3.48503 13.3864 1.19857 29
-3.55554 13.519 1.21501 30
-3.53458 13.5568 1.23725 30
-3.52047 13.5 1.26483 32
-3.63351 13.9106 1.26745 43
-3.59719 13.8182 1.29725 29
-3.64622 14.0442 1.31352 33
-3.67226 13.961 1.34041 36
-3.69197 14.1944 1.35477 34
-3.78719 14.4236 1.37043 39
-3.81766 14.6543 1.38659 46
-3.88163 14.897 1.40323 48
-3.89026 14.9062 1.42976 38
nan nan nan nan
-4.83973 18.5648 1.35579 17
-5.64843 21.6035 1.28882 17
-6.52815 24.9855 1.22196 29
nan nan nan nan
nan nan nan nan
nan nan nan nan
-6.39559 24.6996 1.4085 30
nan nan nan nan
-5.91584 22.7293 1.53812 9
-5.94513 22.7586 1.57874 13
-6.03389 23.1133 1.61374 35
-5.97338 22.8144 1.66007 13
-5.866 22.7602 1.70081 17
-5.94917 22.6876 1.74385 20
-6.42124 24.8384 1.76291 5
-5.95816 22.6861 1.82575 25
-5.94577 22.8808 1.86461 3
-5.94242 22.7682 1.90665 0
-5.92861 22.746 1.9476 23
-5.95393 22.7601 1.98888 28
-5.97638 23.2088 2.02898 23
nan nan nan nan
nan nan nan nan
nan nan nan nan
-5.78711 22.2084 2.22886 8
nan nan nan nan
-6.48934 24.8077 2.43466 11
-5.84202 22.2988 2.47143 30
nan nan nan nan
-6.08755 23.4589 3.21375 9
-5.90981 22.813 3.81931 9
-5.81408 22.436 4.4002 30
nan nan nan nan
nan nan nan nan
nan nan nan nan
-0.392207 1.48626 1.28179 8
nan nan nan nan
-0.777822 2.97745 1.09079 5
nan nan nan nan
-0.420272 1.62837 1.64091 4
-0.44231 1.71757 1.66502 4
-0.446534 1.72799 1.69761 3
-0.457281 1.76562 1.71935 4
-0.465934 1.80259 1.73615 4
-0.47763 1.82745 1.74878 4
-0.479894 1.85375 1.75516 3
-0.487955 1.8992 1.76099 4
-0.49716 1.92398 1.76847 4
-0.508271 1.94756 1.77247 4
-0.519844 1.98114 1.77549 4
-0.518456 2.02346 1.77799 4
-0.518323 2.00899 1.78679 3
-0.550789 2.11436 1.7828 3
-0.573677 2.19133 1.78288 3
-0.566756 2.2145 1.78819 4
-0.580415 2.25298 1.79245 3
-0.605629 2.3192 1.79442 4
-0.65242 2.49808 1.78708 4
-0.660214 2.56898 1.79015 4
-0.702505 2.72881 1.78654 5
-0.757237 2.90595 1.78272 12
-3.43032 13.209 1.04224 6
-3.41092 13.2484 1.08732 36
-3.41235 13.2771 1.13328 37
-3.41047 13.3151 1.15481 33
-3.46052 13.3141 1.17889 39
-3.43825 13.3985 1.19782 30
-3.51581 13.5603 1.21256 32
-3.48845 13.5739 1.23622 34
-3.50315 13.6283 1.25772 25
-3.58117 13.9086 1.26745 28
-3.59111 13.9951 1.28807 31
-3.60458 14.0858 1.31131 32
nan nan nan nan
-3.67832 14.3475 1.34756 36
nan nan nan nan
-3.72418 14.503 1.39271 35
-3.77361 14.6926 1.41119 34
-3.84068 14.9293 1.42856 35
-3.95863 15.4521 1.43614 25
-3.9877 15.5178 1.46174 9
nan nan nan nan
nan nan nan nan
-6.43337 24.8874 1.26936 12
nan nan nan nan
nan nan nan nan
-6.34271 24.8525 1.40398 34
-6.32841 24.7232 1.45622 29
nan nan nan nan
nan nan nan nan
-5.82116 22.6209 1.62112 11
-5.85999 22.7044 1.66077 17
-5.76927 22.7127 1.70045 12
-5.89122 22.7905 1.74165 10
-5.83564 22.9033 1.78052 6
-5.92656 22.8907 1.82304 12
-5.86091 22.8821 1.86345 1
-5.84717 22.6948 1.9059 23
-6.14766 23.9289 1.94347 30
-6.19513 24.0251 1.9868 34
-5.89165 23.215 2.02768 9
-5.93045 22.9625 2.0703 8
-5.65944 22.2318 2.10683 4
nan nan nan nan
nan nan nan nan
nan nan nan nan
-5.84952 22.6857 2.39601 23
-5.62792 21.7915 2.45911 10
-5.57395 21.9835 2.73795 6
-6.00942 23.4945 3.21319 11
-5.72913 22.4375 3.7865 8
-6.03477 23.6272 4.52412 11
nan nan nan nan
nan nan nan nan
nan nan nan nan
-0.385846 1.48323 1.28388 13
nan nan nan nan
-0.766188 2.97547 1.09206 3
nan nan nan nan
-0.418212 1.644 1.6376 3
-0.438725 1.7286 1.66302 1
-0.442925 1.73907 1.69579 13
-0.452325 1.77198 1.71847 1
-0.460846 1.80899 1.73533 5
-0.471237 1.8291 1.74868 3
-0.475847 1.86501 1.75375 1
-0.483766 1.91049 1.75964 4
-0.491657 1.9305 1.76777 4
-0.503926 1.95893 1.77121 4
-0.515386 1.99256 1.77426 4
-0.512602 2.03006 1.77734 4
-0.511298 2.01078 1.78668 3
-0.545863 2.1259 1.78167 3
-0.570957 2.21259 1.7808 3
-0.562682 2.23093 1.78664 4
-0.572538 2.25498 1.79232 3
-0.599997 2.33094 1.79341 3
-0.644921 2.50516 1.78652 3
-0.657376 2.59541 1.78799 4
-0.710143 2.79888 1.78097 6
-0.752031 2.92789 1.78108 23
-3.36808 13.158 1.04609 5
-3.36339 13.2553 1.08692 37
-3.36472 13.284 1.13286 33
-3.37371 13.3656 1.15161 30
-3.41399 13.326 1.17816 33
-3.40977 13.483 1.19271 32
-3.46842 13.5724 1.21181 29
-3.4312 13.5472 1.23766 33
-3.45553 13.6404 1.25697 31
-3.53134 13.9162 1.26693 25
-3.54466 14.0172 1.2868 36
-3.55292 14.0886 1.31101 28
-3.6674 14.3389 1.3221 30
-3.65998 14.4862 1.34101 36
-3.695 14.4835 1.36734 34
-3.67105 14.5062 1.39232 33
-3.74191 14.7832 1.40725 30
-3.80449 15.0056 1.42531 35
-3.90343 15.4609 1.43547 17
-3.94085 15.5607 1.45987 9
-5.01625 19.733 1.34971 37
-5.01382 19.7502 1.38463 25
-6.3526 24.9339 1.26727 13
nan nan nan nan
-6.3686 24.9737 1.35606 25
nan nan nan nan
nan nan nan nan
nan nan nan nan
-6.34859 24.9983 1.53511 20
-6.33918 24.9963 1.58001 7
-5.75976 22.6423 1.66076 23
-5.7276 22.8831 1.69719 9
nan nan nan nan
nan nan nan nan
nan nan nan nan
nan nan nan nan
-5.77626 22.7645 1.90437 29
-5.79668 22.8935 1.94481 23
-5.90692 23.2421 1.98604 13
-5.80817 23.2257 2.02639 7
-5.79351 22.7602 2.06838 17
-5.5514 22.1302 2.10504 12
-5.66512 22.2199 2.14688 11
nan nan nan nan
nan nan nan nan
-5.8307 22.9434 2.39887 12
-5.72944 22.5086 2.4725 12
nan nan nan nan
-5.92378 23.5009 3.21115 5
-5.62169 22.3414 3.77603 12
-6.07979 24.1547 4.57687 9
nan nan nan nan
nan nan nan nan
nan nan nan nan
-0.381749 1.4889 1.28163 13
nan nan nan nan
-0.756404 2.98286 1.09045 3
nan nan nan nan
-0.412453 1.64544 1.63751 4
-0.432672 1.7301 1.66292 1
-0.436837 1.74059 1.6957 1
-0.44371 1.76396 1.71994 1
-0.452109 1.80098 1.73667 4
-0.466052 1.83552 1.7479 9
-0.466593 1.85711 1.75495 4
-0.475872 1.90735 1.76016 4
-0.486115 1.93701 1.76707 4
-0.498291 1.96548 1.77052 5
-0.508417 1.99433 1.77415 4
-0.504296 2.02701 1.77777 4
-0.504266 2.01254 1.78657 4
-0.533562 2.10849 1.78358 3
-0.565657 2.22421 1.77969 3
-0.562118 2.26185 1.78367 4
-0.567073 2.26662 1.79128 3
-0.596734 2.35232 1.79153 3
-0.639818 2.52188 1.78511 4
-0.654361 2.62185 1.78582 4
-0.716089 2.86419 1.77578 9
-0.74546 2.94499 1.77981 25
-3.31478 13.1406 1.04747 6
-3.31706 13.2669 1.08619 32
-3.31588 13.286 1.13277 29
-3.3282 13.3821 1.15056 36
-3.36741 13.3378 1.17742 33
-3.35909 13.4905 1.19223 25
-3.42586 13.6038 1.20993 31
-3.40685 13.6511 1.23171 36
-3.40908 13.6572 1.25595 35
-3.48392 13.9332 1.26591 23
-3.50655 14.073 1.28379 31
-3.50369 14.1009 1.31023 29
-3.60998 14.3225 1.32269 34
-3.60563 14.4946 1.34039 31
-3.65169 14.5254 1.36527 36
-3.6603 14.6788 1.38477 33
-3.68058 14.7574 1.408 33
-3.76782 15.0817 1.42205 42
-3.75531 15.0962 1.44853 17
-4.68734 18.784 1.34678 32
-3.92035 15.6492 1.48462 9
-4.94259 19.7733 1.38334 20
nan nan nan nan
nan nan nan nan
nan nan nan nan
nan nan nan nan
nan nan nan nan
nan nan nan nan
-5.04191 20.1464 1.62515 10
-5.67608 22.7299 1.61741 17
nan nan nan nan
-4.91825 19.9468 1.73554 23
nan nan nan nan
-5.5387 22.3902 1.78342 8
-5.62272 22.3593 1.82505 6
-5.65156 22.7235 1.86216 1
-5.66282 22.6487 1.90371 9
-5.71516 22.9243 1.94346 6
-5.78692 23.1073 1.98488 9
nan nan nan nan
-6.22642 24.8219 2.07294 31
-5.64933 22.8581 2.10707 25
-5.81052 23.1269 2.15138 11
-6.23367 24.9737 2.25237 10
nan nan nan nan
-5.555 22.1829 2.38414 13
-5.46356 21.7818 2.45569 14
-5.42403 22.0365 2.73602 6
-5.78883 23.3082 3.19889 5
nan nan nan nan
-5.61991 22.66 4.41398 12
nan nan nan nan
nan nan nan nan
nan nan nan nan
-0.373203 1.47708 1.28804 10
nan nan nan nan
nan nan nan nan
nan nan nan nan
-0.405507 1.64211 1.6385 100
-0.426614 1.73159 1.66283 1
-0.430744 1.74209 1.6956 3
-0.438726 1.77028 1.71906 1
-0.445807 1.80253 1.73657 4
-0.460829 1.84193 1.74712 9
-0.460304 1.86377 1.75418 4
-0.4692 1.90899 1.76005 4
-0.480532 1.9435 1.76637 4
-0.492617 1.97202 1.76983 4
-0.503846 2.00573 1.77292 4
-0.498396 2.03357 1.77711 4
-0.499614 2.02393 1.7854 4
-0.527388 2.11516 1.78296 3
-0.556678 2.22133 1.78006 3
-0.55302 2.25895 1.78403 4
-0.560341 2.27341 1.7907 3
-0.589714 2.35922 1.79096 4
-0.633404 2.53375 1.78413 4
-0.64878 2.63862 1.78446 4
-0.715622 2.90539 1.77252 14
-0.73637 2.9524 1.77928 25
-3.26164 13.123 1.04887 9
-3.28024 13.3171 1.08278 34
-3.27898 13.3362 1.12949 37
-3.28025 13.3888 1.15014 37
-3.32923 13.3834 1.17458 33
-3.30723 13.5032 1.19141 30
-3.38072 13.6253 1.20862 34
-3.37347 13.7211 1.22766 31
-3.37448 13.7223 1.25228 32
-3.43762 13.955 1.26463 29
-3.4288 13.9688 1.28898 29
-3.45561 14.1178 1.30922 35
-3.5443 14.272 1.3249 37
-3.51315 14.3579 1.3464 34
-3.59854 14.5283 1.36489 30
-3.60544 14.6769 1.38458 30
-3.61948 14.7313 1.40875 31
-3.71752 15.1045 1.42085 49
-3.70377 15.114 1.44752 36
-3.86429 15.7188 1.45357 10
nan nan nan nan
-4.7688 19.3941 1.39464 29
nan nan nan nan
nan nan nan nan
-4.83604 19.535 1.49574 36
-4.77671 19.5711 1.52932 28
-4.78868 19.5588 1.56837 14
nan nan nan nan
-4.97514 20.1784 1.62377 31
-6.1359 24.98 1.57813 9
-4.92833 19.9541 1.69972 9
-4.8415 19.9347 1.73484 37
nan nan nan nan
nan nan nan nan
nan nan nan nan
-4.82864 19.7079 1.87982 3
nan nan nan nan
-5.62949 22.9558 1.94205 30
-5.66555 22.9623 1.98374 12
-5.63058 23.2025 2.02378 20
-5.75932 23.3049 2.06728 28
-5.7032 23.4266 2.10831 8
-5.89078 23.7974 2.15426 11
-5.42913 22.0773 2.22193 12
-5.49334 22.3178 2.30454 8
-5.43923 22.0468 2.38026 11
-5.40072 21.8541 2.45561 17
-5.3589 22.1039 2.73642 9
-5.68259 23.2265 3.19239 20
-5.67511 23.2375 3.84153 28
-5.52912 22.6313 4.40759 29
nan nan nan nan
nan nan nan nan
nan nan nan nan
nan nan nan nan
nan nan nan nan
nan nan nan nan
nan nan nan nan
-0.39626 1.62927 1.64163 100
-0.42055 1.73305 1.66273 1
-0.424646 1.74357 1.69551 8
-0.432531 1.77179 1.71896 1
-0.44184 1.81368 1.73503 1
-0.455566 1.84833 1.74634 9
-0.455088 1.86504 1.7541 4
-0.463699 1.91542 1.75932 4
-0.47491 1.94998 1.76566 4
-0.485719 1.97372 1.76972 4
-0.496831 2.00746 1.77281 4
-0.49363 2.04495 1.77591 4
-0.494888 2.03532 1.78424 4
-0.519992 2.11697 1.78284 3
-0.548911 2.22325 1.77994 3
-0.546295 2.2657 1.78343 4
-0.552393 2.27534 1.79058 3
-0.58503 2.37576 1.78951 4
-0.629285 2.5553 1.7823 4
-0.654867 2.70381 1.77905 5
-0.708995 2.92239 1.7712 28
-0.730799 2.97432 1.77763 33
-3.23236 13.2021 1.04321 11
-3.2337 13.3285 1.08205 32
-3.23237 13.3475 1.12876 35
-3.27091 13.5553 1.1395 36
-3.2789 13.3803 1.17475 36
-3.28002 13.5663 1.18757 34
-3.33666 13.6516 1.20702 29
-3.32081 13.7133 1.22801 30
-3.34888 13.8261 1.24647 34
-3.3818 13.9377 1.26541 36
-3.37647 13.966 1.28896 35
-3.4133 14.1589 1.30702 31
-3.47545 14.2066 1.32782 37
-3.47989 14.4071 1.34396 32
-3.55252 14.5602 1.36324 28
-3.5624 14.7234 1.38234 30
-3.56802 14.7438 1.40795 36
-3.66946 15.1367 1.41927 31
nan nan nan nan
-3.86582 15.9653 1.44455 25
-4.71015 19.3765 1.36 43
-4.70901 19.4138 1.39353 30
-4.71236 19.3368 1.43082 25
-4.62558 19.3073 1.46568 33
-4.74411 19.4546 1.49719 31
-4.699 19.5487 1.5292 35
-4.72271 19.5851 1.56709 35
-4.77245 19.7434 1.59554 37
-4.88933 20.1324 1.62385 33
-4.80764 19.839 1.66485 6
-4.86573 20.0003 1.69818 35
nan nan nan nan
nan nan nan nan
nan nan nan nan
-4.767 19.5322 1.84563 29
-4.75514 19.7051 1.87887 3
-4.78448 19.7188 1.91448 23
nan nan nan nan
-5.53817 22.7876 1.98265 20
-5.36001 22.4294 2.02183 5
-5.63891 23.1645 2.06556 8
-5.75784 24.0153 2.10957 13
-5.84561 23.9733 2.15394 11
nan nan nan nan
-5.74152 23.6828 2.32148 8
-5.44022 22.3863 2.38453 9
-5.29015 21.732 2.45149 12
nan nan nan nan
-5.78872 24.023 3.2309 28
-5.48683 22.8113 3.80496 9
nan nan nan nan
nan nan nan nan
nan nan nan nan
nan nan nan nan
nan nan nan nan
nan nan nan nan
-0.405919 1.66836 1.49805 5
nan nan nan nan
-0.383663 1.60215 1.64798 95
-0.411037 1.72018 1.6655 1
-0.415082 1.73066 1.69799 3
-0.428642 1.78288 1.7173 1
-0.4378 1.82482 1.73348 4
-0.44994 1.85479 1.74555 9
-0.450867 1.87625 1.75269 4
-0.455839 1.91219 1.75984 4
-0.471568 1.9661 1.76377 4
-0.481967 1.98995 1.76787 4
-0.493315 2.02366 1.77101 4
-0.488789 2.05632 1.77471 4
-0.491248 2.05153 1.78255 5
-0.513384 2.12369 1.78221 4
-0.541137 2.22514 1.77982 3
-0.539528 2.27242 1.78283 4
-0.545596 2.28209 1.79 3
-0.580988 2.39724 1.78761 4
-0.623854 2.572 1.78089 4
-0.660508 2.76907 1.77363 5
-0.702257 2.93938 1.76987 36
-0.721052 2.98181 1.77709 35
-3.2014 13.2763 1.03789 20
-3.19291 13.3639 1.07964 32
-3.18456 13.3538 1.12835 31
-3.19585 13.4501 1.1462 34
-3.25787 13.5086 1.16676 36
-3.23954 13.6068 1.18508 31
-3.29596 13.6922 1.20457 29
-3.25782 13.6617 1.23084 35
-3.30173 13.8426 1.24545 34
-3.33193 13.9446 1.26491 28
-3.33924 14.0263 1.28571 32
-3.36383 14.1707 1.30624 29
-3.4245 14.2241 1.32677 33
-3.42493 14.3997 1.34406 30
-3.50864 14.6016 1.36116 33
-3.48546 14.6288 1.38606 38
-3.53737 14.8436 1.40361 48
-3.62122 15.1689 1.41769 29
-3.73448 15.7131 1.42473 29
-4.55985 19.1236 1.33347 25
-4.63792 19.3887 1.35905 20
-4.65396 19.4836 1.39079 36
-4.64015 19.3337 1.43034 27
-4.54896 19.2844 1.46571 22
-4.6493 19.3592 1.49904 29
-4.62266 19.5309 1.52896 33
-4.63929 19.5382 1.56743 31
nan nan nan nan
nan nan nan nan
-4.67225 19.5785 1.6685 33
-4.73885 19.7789 1.70073 20
nan nan nan nan
-4.60204 19.1804 1.7787 30
-4.5702 19.3426 1.81058 37
-4.70113 19.5585 1.84449 36
-4.68171 19.7022 1.87791 1
-4.70057 19.6875 1.91357 31
-5.33586 22.3992 1.94129 12
-5.34928 22.3497 1.98183 8
-5.25534 22.336 2.02052 5
nan nan nan nan
nan nan nan nan
nan nan nan nan
-5.3151 22.3004 2.22128 11
-5.3247 22.3022 2.30138 8
-5.64613 23.5915 2.40351 9
-5.80172 24.2004 2.50085 10
-5.72504 24.3543 2.80728 6
-5.67954 23.9362 3.22413 34
-5.34179 22.5539 3.78187 6
-5.26355 22.2146 4.35683 33
nan nan nan nan
nan nan nan nan
nan nan nan nan
nan nan nan nan
nan nan nan nan
-0.40369 1.68365 1.49365 5
-0.428078 1.76352 1.5516 3
-0.374655 1.58922 1.65111 108
-0.402751 1.71204 1.66732 1
-0.419253 1.77522 1.69016 1
-0.422402 1.78435 1.7172 1
-0.431414 1.82633 1.73339 1
-0.44345 1.85634 1.74545 1
-0.446903 1.88737 1.75128 4
-0.450293 1.91859 1.75912 4
-0.464691 1.96772 1.76366 4
-0.477304 2.00128 1.76661 4
-0.489691 2.03986 1.76922 4
-0.486153 2.07736 1.77242 4
-0.489786 2.07742 1.7798 5
-0.517442 2.17386 1.777 4
-0.540263 2.25605 1.77675 3
-0.532721 2.27913 1.78223 4
-0.539901 2.29366 1.78896 3
-0.576067 2.41378 1.78616 4
-0.616013 2.579 1.78033 4
-0.667987 2.84411 1.76739 6
-0.691982 2.9418 1.76971 38
-0.71524 3.0037 1.77544 36
-3.1596 13.3068 1.03576 33
-3.14621 13.3749 1.07891 32
-3.13789 13.3648 1.12763 36
-3.14885 13.4612 1.14547 35
-3.22219 13.5685 1.16301 32
-3.19778 13.632 1.1835 31
-3.24581 13.6939 1.20439 32
-3.21237 13.6826 1.22955 33
-3.25107 13.8443 1.24523 30
-3.28092 13.9464 1.26467 23
-3.29023 14.0378 1.28495 31
-3.31546 14.1872 1.30524 28
-3.38977 14.2991 1.32298 31
-3.39877 14.5033 1.33908 31
-3.46337 14.638 1.3593 32
-3.42179 14.5874 1.38752 33
-3.47866 14.8266 1.40398 30
-3.59111 15.2787 1.41311 36
-3.67617 15.7114 1.42442 14
-4.4565 18.9837 1.33789 15
-4.5072 19.1372 1.3669 32
-4.52408 19.2216 1.39851 33
-4.56917 19.3351 1.42972 27
-4.48047 19.2953 1.4648 31
-4.56557 19.3072 1.49977 37
-4.55671 19.5566 1.52767 34
-4.56764 19.5396 1.5667 39
-4.56263 19.4696 1.59974 19
-4.62265 19.6462 1.63145 30
-4.53296 19.2775 1.67291 31
nan nan nan nan
-4.46639 19.2683 1.7413 32
-4.54541 19.2401 1.77714 24
-4.49359 19.3195 1.80992 22
-4.63054 19.565 1.8435 33
-4.61519 19.7281 1.87678 1
-4.62382 19.6698 1.91266 28
-5.28782 22.5287 1.93982 13
-5.26895 22.3585 1.98062 11
nan nan nan nan
-5.79198 24.5366 2.06653 5
-5.19952 22.3747 2.09965 23
-5.27543 22.3105 2.14075 20
-5.24296 22.3432 2.2203 13
-5.264 22.3936 2.30115 14
nan nan nan nan
-5.75745 24.3908 2.50303 10
nan nan nan nan
nan nan nan nan
-5.28464 22.6647 3.78793 12
-5.1816 22.2136 4.35357 29
nan nan nan nan
nan nan nan nan
nan nan nan nan
nan nan nan nan
nan nan nan nan
nan nan nan nan
nan nan nan nan
-0.354592 1.52869 1.66499 4
-0.395642 1.70864 1.66818 1
-0.413039 1.77666 1.69006 3
-0.416158 1.7858 1.7171 1
-0.425024 1.82781 1.73329 3
-0.436956 1.85786 1.74535 1
-0.43997 1.88899 1.75117 4
-0.448086 1.93947 1.75652 4
-0.458934 1.97416 1.76296 4
-0.471436 2.00776 1.76592 4
-0.487094 2.0609 1.76686 4
-0.483376 2.0984 1.77013 5
-0.498276 2.14691 1.7723 4
-0.510972 2.18048 1.77637 5
-0.525569 2.22885 1.77958 3
-0.525874 2.28581 1.78163 4
-0.535257 2.31008 1.78746 3
-0.568764 2.42062 1.78559 4
-0.609265 2.59083 1.77934 4
-0.662553 2.86583 1.76562 8
-0.681699 2.94419 1.76955 35
-0.70247 2.99646 1.77602 28
-3.11422 13.3225 1.03468 36
-3.09608 13.3712 1.0792 29
-3.10355 13.4291 1.12339 34
-3.113 13.5207 1.14163 34
-3.14979 13.4727 1.16891 32
-3.15785 13.6874 1.18008 34
-3.19682 13.7002 1.20394 36
-3.16681 13.7035 1.22825 35
-3.21732 13.9187 1.24101 32
-3.23106 13.9528 1.26417 30
-3.2423 14.0541 1.28394 32
-3.28604 14.2862 1.30015 33
-3.34095 14.3157 1.32198 34
-3.33548 14.4719 1.34027 32
-3.40091 14.6014 1.36065 30
-3.40008 14.7257 1.38138 33
-3.43362 14.8679 1.402 30
-3.47802 15.0331 1.42226 46
-3.61231 15.6852 1.42501 38
-3.6275 15.6981 1.45271 30
-4.46179 19.2453 1.36278 31
-4.45356 19.2226 1.39793 32
-4.4824 19.2682 1.43113 32
-4.41084 19.301 1.46403 32
-4.497 19.3181 1.49885 34
-4.43364 19.3337 1.53242 33
-4.46352 19.3996 1.56913 39
-4.44745 19.2808 1.60294 35
-4.44466 19.1898 1.63934 36
-4.44986 19.225 1.67304 25
-4.4594 19.2028 1.70794 35
-4.3902 19.2448 1.74079 27
-4.47369 19.2364 1.77633 24
-4.41831 19.3009 1.80922 26
-4.54406 19.5031 1.84308 36
-4.50592 19.5687 1.87684 1
-4.54725 19.6517 1.91175 13
-4.52519 19.585 1.94699 6
-5.1954 22.3962 1.97939 4
