# .PCD v0.7 - Point Cloud Data file format
VERSION 0.7
FIELDS x y z intensity
SIZE 4 4 4 4
TYPE F F F F
COUNT 1 1 1 1
WIDTH 1777
HEIGHT 1
VIEWPOINT 0 0 0 1 0 0 0
POINTS 1777
DATA ascii
nan nan nan nan
28.6624 -12.977 1.30511 3
28.3925 -12.9816 1.36711 3
28.5009 -12.8908 1.41807 3
40.6724 -18.5545 1.24759 9
40.6786 -18.5202 1.33289 35
40.7175 -18.5095 1.40218 30
40.7674 -18.4866 1.47902 36
40.7613 -18.4896 1.55724 34
40.8715 -18.5025 1.63383 30
40.5273 -18.524 1.71704 39
40.6652 -18.3788 1.79097 36
40.6159 -18.5247 1.87158 36
40.7243 -18.3829 1.94619 32
40.6999 -18.4975 2.02625 36
40.7611 -18.4711 2.10342 32
40.7737 -18.4912 2.18179 35
40.886 -18.4964 2.25972 36
40.5272 -18.5113 2.33857 37
40.6641 -18.3657 2.4134 35
40.6183 -18.5132 2.49427 35
40.7258 -18.371 2.56943 29
40.721 -18.4488 2.72711 33
40.8953 -18.5051 2.88632 31
40.6428 -18.352 3.03553 33
40.7344 -18.3708 3.19324 30
40.6671 -18.5359 3.74298 34
40.7913 -18.4627 4.52679 37
40.8188 -18.4505 5.74456 36
40.9133 -18.4486 6.93625 36
20.9718 -9.402 5.52069 17
40.8031 -18.4705 10.8807 32
40.9634 -18.2775 13.7739 35
3.84756 -1.8056 0.0132296 13
5.05828 -2.34635 0.00212407 16
6.37583 -2.96746 -0.0450354 11
7.6528 -3.52409 -0.0637124 11
8.94432 -4.1401 -0.0872962 11
10.191 -4.72045 -0.0953119 13
11.654 -5.38396 -0.143008 13
13.0146 -6.00376 -0.16596 12
14.4638 -6.68238 -0.210165 11
15.5235 -7.12831 -0.219372 12
16.3584 -7.56063 -0.245256 14
nan nan nan nan
18.3187 -8.43473 -0.278796 9
16.7564 -7.68696 -0.0179861 8
16.6505 -7.62412 0.0597655 6
16.648 -7.68158 0.123035 5
16.62 -7.65092 0.191076 5
16.6182 -7.62184 0.25627 5
16.6247 -7.61052 0.323391 5
16.5804 -7.6487 0.387551 5
16.5832 -7.63227 0.451735 5
16.5522 -7.56889 0.51941 5
16.6493 -7.62017 0.574773 4
16.6727 -7.66485 0.636546 4
16.712 -7.6863 0.697714 4
16.7742 -7.66873 0.758009 4
16.9264 -7.74178 0.811787 4
16.9385 -7.78527 0.875774 4
17.1026 -7.86784 0.930604 6
17.1163 -7.89038 0.962573 4
17.1673 -7.84312 0.99289 3
17.2868 -7.95797 1.01876 4
17.4673 -7.98754 1.04228 3
17.4352 -8.01358 1.07739 4
17.5463 -8.06278 1.10521 3
17.7284 -8.13703 1.12997 3
17.9457 -8.25387 1.15371 3
18.1418 -8.35744 1.18275 3
nan nan nan nan
nan nan nan nan
28.1067 -12.8525 0.888143 3
27.8016 -12.7671 0.953755 3
nan nan nan nan
27.8838 -12.7885 1.0577 1
nan nan nan nan
28.052 -12.8729 1.15975 1
nan nan nan nan
nan nan nan nan
28.4123 -12.9835 1.31211 3
28.2154 -13.0199 1.37206 3
28.2557 -12.8989 1.42418 3
40.3349 -18.571 1.25552 9
40.3639 -18.5472 1.33987 33
40.3936 -18.5327 1.40887 37
40.4435 -18.5101 1.48522 32
40.4375 -18.5132 1.56294 36
40.5429 -18.5245 1.63908 29
40.2127 -18.5501 1.72165 37
40.3415 -18.4023 1.79517 37
40.2966 -18.5493 1.87526 37
40.3869 -18.4005 1.94942 33
40.3624 -18.5143 2.02894 36
40.3827 -18.4697 2.10549 37
40.4452 -18.5126 2.18349 34
40.5574 -18.5185 2.26092 36
40.208 -18.5354 2.33931 36
40.3404 -18.3893 2.41363 35
40.2991 -18.5378 2.49404 36
40.4112 -18.399 2.56879 31
40.3972 -18.4723 2.72535 34
40.5576 -18.5231 2.88328 32
40.3191 -18.3756 3.03177 35
40.4106 -18.3947 3.1885 34
40.3434 -18.5586 3.73474 36
40.4813 -18.4928 4.51444 31
40.5091 -18.481 5.72493 30
40.577 -18.4675 6.90631 36
40.5219 -18.3337 8.81882 36
40.4658 -18.4881 10.8242 33
40.6342 -18.3008 13.7006 35
3.84542 -1.82104 0.0113697 12
5.05017 -2.36407 0.00248361 13
6.36554 -2.98978 -0.0445819 11
7.64496 -3.55291 -0.0643649 11
8.94693 -4.18122 -0.090791 11
10.179 -4.75816 -0.0955083 11
11.6263 -5.42052 -0.140528 11
12.9992 -6.04905 -0.165832 10
14.4405 -6.73291 -0.209138 11
15.4941 -7.18045 -0.217626 12
16.323 -7.61357 -0.242855 14
16.9697 -7.89119 -0.215325 6
nan nan nan nan
16.7296 -7.74548 -0.0167987 8
16.7006 -7.71774 0.0519655 6
16.6844 -7.7691 0.117068 5
16.6714 -7.74168 0.18381 5
16.6684 -7.71541 0.249355 5
16.684 -7.70826 0.315869 5
16.6486 -7.75072 0.379465 5
16.6528 -7.73133 0.443954 5
16.7022 -7.70813 0.504725 4
16.7086 -7.71803 0.568558 4
16.7138 -7.75451 0.632154 4
16.7679 -7.7795 0.692464 4
16.8018 -7.75237 0.755153 4
16.9809 -7.83851 0.807234 4
17.0018 -7.88637 0.870936 4
17.1005 -7.93206 0.930273 3
17.1747 -7.99012 0.958549 4
17.1943 -7.92812 0.990898 6
17.2409 -8.00988 1.02102 4
17.4438 -8.05059 1.04326 3
17.4058 -8.07746 1.07869 4
17.5227 -8.12611 1.10623 3
17.6999 -8.19889 1.13123 3
17.9379 -8.31864 1.15399 3
18.1126 -8.42074 1.18404 3
nan nan nan nan
27.6989 -12.8617 0.851345 4
27.9437 -12.8961 0.894815 3
27.859 -12.9173 0.951886 3
nan nan nan nan
27.8436 -12.8879 1.05953 3
nan nan nan nan
27.7983 -12.8742 1.16801 3
nan nan nan nan
nan nan nan nan
28.0355 -12.9297 1.32217 3
28.052 -13.0634 1.3767 3
28.0879 -12.941 1.42869 3
40.0251 -18.5979 1.26291 9
40.0469 -18.5542 1.34669 31
40.0747 -18.556 1.41546 30
40.1245 -18.5338 1.49132 27
40.123 -18.5388 1.56851 35
40.2192 -18.5465 1.64426 31
39.8893 -18.5701 1.7263 37
40.0182 -18.4239 1.79934 36
39.9732 -18.5697 1.87892 36
40.0849 -18.4237 1.95244 35
40.0616 -18.5459 2.03163 35
40.1182 -18.5183 2.10783 33
40.1398 -18.5425 2.18526 33
40.2337 -18.5406 2.26212 36
39.8937 -18.5597 2.34006 35
40.0216 -18.413 2.41386 35
39.9847 -18.5626 2.49383 34
40.0909 -18.4139 2.56786 30
40.0873 -18.5 2.72379 35
40.2384 -18.5473 2.8806 32
39.9959 -18.3971 3.02798 34
40.0905 -18.4097 3.18358 37
40.0245 -18.5814 3.72666 36
40.1489 -18.5105 4.50065 37
40.1908 -18.5054 5.70443 31
40.2592 -18.4926 6.87853 36
nan nan nan nan
40.1379 -18.5077 10.7696 32
40.3042 -18.3129 13.6258 33
3.84323 -1.83648 0.00951076 13
5.03774 -2.37976 0.00454104 12
6.35517 -3.01206 -0.0441279 11
7.63262 -3.57965 -0.0638211 11
8.92427 -4.20677 -0.0881052 10
10.1625 -4.79374 -0.0947833 13
11.6074 -5.46115 -0.1397 12
12.9736 -6.09237 -0.164158 13
14.4215 -6.78547 -0.208799 11
15.4601 -7.23038 -0.215233 20
nan nan nan nan
16.939 -7.94539 -0.21359 5
16.8395 -7.89311 -0.0985394 5
16.7116 -7.80811 -0.0167005 4
16.7547 -7.8139 0.0436499 5
16.7158 -7.85485 0.111622 4
16.721 -7.83579 0.176615 5
16.7091 -7.80522 0.243404 5
16.7247 -7.79809 0.310191 5
16.6936 -7.84271 0.373598 5
16.6935 -7.82117 0.438786 5
16.7431 -7.798 0.499817 5
16.7494 -7.80796 0.563912 5
16.7589 -7.84667 0.627401 4
16.7994 -7.86552 0.689056 4
16.8651 -7.85313 0.749613 4
17.0213 -7.9294 0.803652 3
17.0285 -7.97109 0.868525 1
17.094 -8.00531 0.930128 4
17.1919 -8.07128 0.957017 3
17.1484 -7.9797 0.993186 4
17.2807 -8.10185 1.01838 4
17.3659 -8.08826 1.04725 5
17.4151 -8.15209 1.07794 4
17.5124 -8.19572 1.10654 3
17.6984 -8.27334 1.13115 3
17.9164 -8.38859 1.1549 3
18.0831 -8.48393 1.18533 3
nan nan nan nan
nan nan nan nan
27.7854 -12.9409 0.901292 4
nan nan nan nan
27.7236 -12.9641 1.01068 3
29.7048 -13.8754 0.996888 4
27.7487 -12.989 1.11676 3
27.8347 -13.0092 1.16753 3
27.778 -12.9568 1.22258 3
27.8819 -13.009 1.27336 3
27.9858 -13.0254 1.32427 3
27.8955 -13.1033 1.38112 3
27.9202 -12.982 1.43318 4
39.711 -18.6208 1.27035 6
39.7205 -18.5801 1.3539 36
39.7606 -18.5793 1.42194 36
39.8058 -18.5554 1.49739 36
39.8134 -18.5647 1.57399 33
39.9005 -18.5686 1.64936 31
39.5786 -18.5854 1.73071 37
39.6952 -18.4433 1.80348 35
39.6546 -18.5903 1.88253 36
39.7664 -18.4456 1.95558 32
39.7384 -18.5649 2.03427 34
39.8041 -18.5421 2.11 35
39.812 -18.5599 2.18689 30
39.9104 -18.5607 2.26329 36
39.5694 -18.5687 2.34051 35
39.6986 -18.4325 2.41402 36
39.6616 -18.5811 2.49348 33
39.7769 -18.4381 2.56715 36
39.7732 -18.5237 2.72213 33
39.9105 -18.5652 2.87769 30
39.6729 -18.4166 3.02416 32
39.7719 -18.4318 3.1789 31
39.715 -18.6065 3.71894 34
39.8441 -18.5388 4.48852 37
39.8637 -18.5236 5.68307 36
39.9416 -18.5157 6.85071 36
22.9813 -10.5927 5.8817 15
39.8147 -18.5273 10.716 30
39.9845 -18.336 13.5549 33
3.8369 -1.84997 0.00978613 12
5.02526 -2.39538 0.00659835 12
6.34473 -3.03431 -0.0436735 11
7.62457 -3.60844 -0.0644717 11
8.91406 -4.24008 -0.0885077 14
10.1458 -4.82927 -0.0940578 12
11.5884 -5.50172 -0.138872 11
12.9513 -6.13996 -0.163186 12
14.3979 -6.83585 -0.20777 11
15.4259 -7.28015 -0.212842 13
15.9471 -7.5742 -0.195953 23
16.9158 -8.00668 -0.212971 6
16.7881 -7.94423 -0.0944686 4
16.6753 -7.86223 -0.0144207 5
16.7635 -7.88936 0.0406224 5
16.7378 -7.93666 0.107205 6
16.7552 -7.92688 0.170969 5
16.7674 -7.90389 0.235561 6
16.7831 -7.89678 0.302695 5
16.7382 -7.93512 0.367741 4
16.7413 -7.91857 0.432842 5
16.7023 -7.85009 0.502226 5
16.8033 -7.90464 0.558111 4
16.8397 -7.95628 0.619692 4
16.8608 -7.96971 0.683242 4
16.928 -7.95444 0.744086 4
17.0839 -8.03128 0.798485 1
nan nan nan nan
nan nan nan nan
17.2855 -8.18898 0.950817 1
17.1793 -8.06714 0.99094 4
17.32 -8.19419 1.01574 3
17.3512 -8.15523 1.04773 4
17.4814 -8.25764 1.07413 4
17.4927 -8.26109 1.10733 3
17.7011 -8.35001 1.13085 3
17.8946 -8.45849 1.15582 3
18.0535 -8.54703 1.18662 3
27.6784 -12.9956 0.798926 3
nan nan nan nan
28.0521 -13.1845 0.890889 4
29.7952 -14.0619 0.879335 3
29.6985 -14.0139 0.940308 4
29.6924 -13.996 0.997779 4
29.5898 -13.9832 1.0585 5
29.6607 -13.9891 1.11334 4
nan nan nan nan
27.8725 -13.1233 1.2744 3
27.9447 -13.1252 1.32615 3
27.8608 -13.2119 1.3829 3
27.9019 -13.0922 1.43462 4
39.4108 -18.6481 1.27751 6
39.4081 -18.6103 1.36085 31
39.4468 -18.6007 1.4284 31
39.4875 -18.5751 1.50343 32
39.4905 -18.5822 1.57959 30
39.5775 -18.5866 1.65447 36
39.2572 -18.6104 1.73539 37
39.3725 -18.4608 1.80758 34
39.3364 -18.6088 1.88611 36
39.4482 -18.4656 1.95869 37
39.4246 -18.5862 2.03689 34
39.4857 -18.5618 2.11213 35
39.5026 -18.5838 2.18858 30
39.5919 -18.5809 2.26445 36
39.2616 -18.6001 2.3414 32
39.385 -18.4543 2.41424 35
39.3524 -18.604 2.49326 31
39.4677 -18.4624 2.56648 31
39.4549 -18.5433 2.72034 37
39.5921 -18.5854 2.87494 37
39.3549 -18.4361 3.02042 31
39.4628 -18.4561 3.17446 37
39.3923 -18.6232 3.71059 33
39.544 -18.5673 4.47664 37
39.546 -18.544 5.6625 29
39.6244 -18.5368 6.82285 34
39.5783 -18.4081 8.70066 33
39.5185 -18.5574 10.6682 30
39.6739 -18.3613 13.4866 32
3.83052 -1.86343 0.0100619 13
5.01697 -2.41299 0.00695825 12
6.3342 -3.05652 -0.0432186 12
7.60328 -3.63092 -0.0615377 12
8.90373 -4.27337 -0.0889094 11
10.129 -4.86474 -0.0933313 14
11.5781 -5.54648 -0.139693 13
12.9601 -6.20242 -0.167454 13
14.3741 -6.88615 -0.20674 11
15.4005 -7.33403 -0.21174 10
15.9162 -7.62776 -0.194193 20
nan nan nan nan
16.8397 -8.04434 -0.10332 5
nan nan nan nan
16.8662 -8.00978 0.0265293 6
nan nan nan nan
16.8923 -8.06764 0.154011 6
16.9421 -8.05866 0.21538 6
16.9084 -8.02801 0.288359 6
16.9217 -8.09454 0.348253 6
16.8651 -8.05292 0.419724 0
16.7829 -7.95966 0.493683 5
16.9018 -8.02318 0.548441 5
16.8884 -8.05153 0.614594 4
16.9306 -8.07875 0.676737 4
16.9723 -8.04773 0.739918 4
nan nan nan nan
17.1843 -8.19075 0.856807 1
nan nan nan nan
17.3605 -8.29883 0.945734 3
17.2052 -8.15275 0.988969 3
17.3725 -8.29336 1.01235 3
17.4039 -8.25431 1.04449 4
17.5518 -8.36589 1.0701 3
17.4999 -8.33931 1.10673 4
17.6944 -8.4225 1.131 3
17.8771 -8.5305 1.15652 3
18.001 -8.59925 1.18893 3
27.6329 -13.0922 0.800899 3
nan nan nan nan
nan nan nan nan
nan nan nan nan
29.7803 -14.1798 0.937744 4
29.8149 -14.1812 0.994091 3
29.6061 -14.1239 1.05856 5
29.6298 -14.1011 1.11492 3
29.9579 -14.2293 1.16281 3
27.8401 -13.2269 1.27603 3
27.9304 -13.2376 1.32738 3
27.8867 -13.3436 1.38329 3
27.8877 -13.2045 1.43596 3
39.2012 -18.7167 1.28298 8
39.1817 -18.6793 1.36637 38
39.2147 -18.6588 1.43364 38
39.2283 -18.6206 1.5087 39
39.2313 -18.6277 1.58448 38
39.2549 -18.6026 1.65955 37
39.1966 -18.7495 1.73817 37
39.2762 -18.5831 1.81054 36
39.2306 -18.7266 1.88904 36
39.3124 -18.578 1.96171 35
39.2512 -18.6722 2.0396 3
39.2761 -18.6309 2.11454 35
39.2749 -18.6444 2.19061 33
39.2828 -18.6034 2.26564 34
39.2054 -18.7413 2.34429 36
39.2842 -18.5745 2.41667 37
39.233 -18.7154 2.49539 33
39.2958 -18.5577 2.56794 39
39.2725 -18.6251 2.72101 40
39.301 -18.6164 2.87275 31
39.3128 -18.584 3.02381 37
39.3271 -18.5685 3.17539 39
39.2773 -18.7368 3.71125 35
39.2803 -18.6111 4.467 39
39.3097 -18.6008 5.64943 35
39.3436 -18.5729 6.79935 35
39.3658 -18.4765 8.67842 38
39.4619 -18.699 10.6729 35
39.5882 -18.4978 13.4844 35
nan nan nan nan
5.00862 -2.43057 0.00731838 12
6.31929 -3.07659 -0.0413604 12
7.59504 -3.65963 -0.0621872 11
8.88006 -4.30025 -0.0861921 12
10.112 -4.90015 -0.0926044 10
11.5544 -5.5848 -0.138038 12
12.9395 -6.24544 -0.166571 12
14.3501 -6.93637 -0.205709 11
15.3794 -7.38998 -0.211282 8
15.8181 -7.64878 -0.183156 33
15.9919 -7.70674 -0.0964184 34
nan nan nan nan
16.9473 -8.13566 -0.051765 17
16.9727 -8.13317 0.011929 10
16.9913 -8.20262 0.0744585 9
17.0807 -8.22732 0.131545 35
17.0216 -8.16952 0.205199 9
16.9702 -8.13009 0.280437 5
16.9832 -8.19691 0.34067 5
17.2604 -8.31204 0.381159 11
16.845 -8.06128 0.486777 5
16.9457 -8.11665 0.543445 5
16.9412 -8.14937 0.609138 4
16.9891 -8.17599 0.671184 4
17.0297 -8.14788 0.734754 4
17.2841 -8.27328 0.782785 4
17.3086 -8.32425 0.847815 9
17.2644 -8.31036 0.917705 4
17.5024 -8.44184 0.936551 1
nan nan nan nan
nan nan nan nan
17.4606 -8.35602 1.04102 3
17.635 -8.48123 1.06537 1
17.5338 -8.43066 1.10475 4
17.7415 -8.521 1.12849 4
17.8847 -8.60709 1.15603 3
17.9844 -8.66856 1.18961 1
27.5871 -13.1886 0.802875 3
nan nan nan nan
28.8294 -13.7965 0.860391 5
nan nan nan nan
29.4334 -14.1409 0.950516 3
28.8416 -13.842 1.02749 5
29.6312 -14.2567 1.05828 4
29.603 -14.2153 1.11637 3
29.9081 -14.3338 1.16495 3
nan nan nan nan
27.9517 -13.3674 1.32774 3
27.8671 -13.4539 1.38469 3
27.8911 -13.3254 1.43695 5
39.1942 -18.8816 1.28472 9
39.1737 -18.8351 1.36816 39
39.1989 -18.8194 1.43573 40
39.2127 -18.7812 1.51088 39
39.2066 -18.7839 1.58686 39
39.2303 -18.7589 1.662 39
39.1759 -18.9079 1.74068 38
39.2518 -18.7395 1.81315 39
39.183 -18.8721 1.8918 36
39.2654 -18.7237 1.9645 39
39.2218 -18.8263 2.04245 38
39.2379 -18.7808 2.11743 40
39.2276 -18.79 2.19351 39
39.2537 -18.7576 2.26869 36
39.1893 -18.9019 2.34754 40
39.2732 -18.7373 2.42005 36
39.2125 -18.8738 2.49877 40
39.2849 -18.7206 2.57153 39
39.2568 -18.7858 2.72473 39
39.2809 -18.775 2.87657 39
39.3018 -18.7469 3.02804 40
39.3161 -18.7314 3.17982 41
39.2656 -18.8997 3.71642 39
39.2691 -18.7738 4.47321 40
39.3208 -18.7742 5.65936 40
39.3321 -18.7356 6.80875 35
22.7301 -10.7667 5.86304 13
39.4048 -18.8405 10.6777 39
39.5053 -18.6271 13.4822 39
3.40429 -1.68552 0.228155 6
5.00444 -2.45019 0.00598252 13
6.30862 -3.09871 -0.0409052 12
7.58233 -3.68621 -0.0616417 11
8.86071 -4.32915 -0.0845144 11
10.095 -4.9355 -0.0918767 14
11.5349 -5.62518 -0.137208 14
12.9133 -6.28849 -0.164893 13
14.3259 -6.98651 -0.204678 12
15.376 -7.45452 -0.2134 5
15.8004 -7.70838 -0.183255 25
nan nan nan nan
15.9492 -7.75277 0.00396168 9
nan nan nan nan
17.1189 -8.27688 -0.00739002 29
15.9028 -7.74589 0.196308 28
17.0251 -8.27391 0.135722 5
17.0693 -8.26583 0.198355 29
17.148 -8.28906 0.260668 6
17.2232 -8.387 0.315522 9
17.2 -8.35705 0.385353 8
16.9022 -8.16126 0.48029 5
17.0251 -8.22788 0.535359 4
17.0518 -8.27598 0.598884 4
17.0682 -8.28757 0.663943 4
17.1 -8.25504 0.728597 4
17.3225 -8.36617 0.779256 4
nan nan nan nan
nan nan nan nan
17.5402 -8.53569 0.933698 1
nan nan nan nan
nan nan nan nan
17.5348 -8.46691 1.03656 1
17.7447 -8.61032 1.05922 1
17.6076 -8.54197 1.1007 4
17.8016 -8.62646 1.12532 4
17.8726 -8.67822 1.15646 3
nan nan nan nan
27.6355 -13.3304 0.800738 3
nan nan nan nan
nan nan nan nan
28.2615 -13.702 0.93796 3
28.7588 -13.9407 0.97499 4
28.7707 -13.9317 1.03032 4
28.6866 -13.9257 1.08894 4
nan nan nan nan
nan nan nan nan
nan nan nan nan
27.9139 -13.4693 1.32953 3
27.8919 -13.5861 1.3851 3
nan nan nan nan
39.227 -19.0664 1.28572 10
39.1752 -19.0045 1.36988 38
39.214 -18.9953 1.43738 40
39.2234 -18.9549 1.51274 41
39.2219 -18.9598 1.58881 39
39.2457 -18.9348 1.66411 39
39.1907 -19.0839 1.74296 41
39.2672 -18.9154 1.81558 39
39.2024 -19.0503 1.89437 39
39.2809 -18.8996 1.96724 40
39.2369 -19.0023 2.04535 39
39.2532 -18.9568 2.12048 39
39.2473 -18.9681 2.19675 38
39.2735 -18.9357 2.27209 39
39.2085 -19.0801 2.35111 37
39.2932 -18.9154 2.42378 40
39.2363 -19.0542 2.50273 42
39.3049 -18.8987 2.57559 40
39.281 -18.9661 2.72921 42
39.3051 -18.9553 2.8814 41
39.3217 -18.9251 3.03309 40
39.3405 -18.9117 3.18535 41
39.2892 -19.0802 3.72318 40
39.3021 -18.9583 4.48227 40
39.3311 -18.9479 5.66929 41
39.3558 -18.9156 6.82254 40
39.4225 -18.8398 8.71595 36
39.4002 -19.0073 10.6942 39
39.505 -18.7956 13.5041 40
3.37016 -1.68332 0.243329 5
4.99596 -2.46773 0.0063436 13
6.28497 -3.1144 -0.0362427 12
7.56952 -3.71273 -0.0610955 11
8.84565 -4.36014 -0.0838754 10
10.0778 -4.97079 -0.0911486 11
11.5153 -5.6655 -0.136376 12
12.8958 -6.33579 -0.16471 13
14.2793 -7.02562 -0.200209 13
15.3856 -7.52566 -0.217446 4
15.7423 -7.74823 -0.177791 35
15.7373 -7.71999 -0.0676746 36
15.8195 -7.75816 0.0180082 30
nan nan nan nan
nan nan nan nan
15.7954 -7.76195 0.206609 41
nan nan nan nan
17.188 -8.39755 0.183938 10
17.213 -8.39478 0.252327 8
17.1627 -8.43176 0.319837 8
17.1126 -8.3886 0.392076 5
17.0036 -8.28357 0.46977 4
17.1218 -8.34851 0.525741 4
17.0945 -8.37058 0.594197 4
17.1468 -8.3998 0.656718 4
17.1519 -8.35405 0.723796 4
nan nan nan nan
nan nan nan nan
nan nan nan nan
nan nan nan nan
nan nan nan nan
nan nan nan nan
17.8957 -8.71845 1.01625 1
17.8133 -8.72053 1.05523 3
17.7034 -8.66487 1.09552 3
17.8702 -8.73683 1.12173 4
17.8467 -8.74278 1.15753 3
nan nan nan nan
27.6293 -13.4465 0.800963 3
nan nan nan nan
nan nan nan nan
28.2091 -13.7984 0.940163 3
28.5349 -13.9554 0.983321 4
28.4705 -13.9092 1.04089 4
nan nan nan nan
nan nan nan nan
nan nan nan nan
27.8575 -13.5945 1.27792 4
27.9476 -13.606 1.32959 3
27.8802 -13.701 1.38632 3
nan nan nan nan
39.2411 -19.2428 1.28707 12
39.2075 -19.1894 1.37111 39
39.2373 -19.176 1.4389 40
39.2469 -19.1355 1.51444 42
39.2453 -19.1405 1.59069 40
39.2648 -19.1133 1.6662 40
39.2091 -19.2625 1.74522 41
39.2864 -19.0939 1.818 40
39.2164 -19.2266 1.89698 40
39.2957 -19.0759 1.97 40
39.2467 -19.1765 2.04826 39
39.2677 -19.1331 2.12355 39
39.2618 -19.1444 2.19998 39
39.2881 -19.112 2.27547 40
39.2225 -19.2564 2.35466 40
39.3078 -19.0917 2.42748 41
39.2459 -19.2284 2.50654 41
39.3197 -19.075 2.5796 41
39.2864 -19.1381 2.73337 40
39.3061 -19.1252 2.88574 41
39.3318 -19.0993 3.03793 40
39.3462 -19.0838 3.19035 41
39.2896 -19.2501 3.72897 40
39.3119 -19.1324 4.48993 41
39.3363 -19.1198 5.67882 41
39.3474 -19.0808 6.83251 36
39.414 -19.0049 8.72866 37
39.4214 -19.1873 10.7165 35
39.5257 -18.9747 13.5324 40
3.34416 -1.68496 0.254235 4
4.98321 -2.48313 0.00840092 13
6.27846 -3.13855 -0.0371897 12
7.56098 -3.74137 -0.0617423 11
8.83049 -4.39107 -0.083236 14
10.0605 -5.00602 -0.09042 14
11.5 -5.70793 -0.136368 14
12.8738 -6.38085 -0.163779 13
14.2237 -7.06009 -0.19437 5
15.426 -7.61233 -0.225992 8
15.6664 -7.77894 -0.16986 36
15.7015 -7.77055 -0.0653634 38
15.7079 -7.77154 0.0297991 35
15.7248 -7.75235 0.0904112 33
15.7762 -7.76376 0.146541 40
15.7192 -7.79281 0.213342 28
15.8789 -7.85443 0.257987 30
17.1854 -8.47077 0.182335 6
17.2328 -8.47907 0.248556 9
17.2046 -8.52705 0.314055 3
17.1637 -8.48809 0.385724 4
17.0909 -8.4001 0.460483 4
17.1552 -8.43909 0.521559 4
17.1592 -8.47661 0.587674 4
17.2024 -8.50163 0.651269 4
17.2167 -8.46013 0.718003 3
17.4653 -8.58609 0.76747 1
nan nan nan nan
nan nan nan nan
17.7442 -8.78874 0.920093 3
17.7846 -8.73349 0.952816 3
17.7431 -8.77662 0.989426 6
17.8518 -8.77428 1.01829 3
17.9395 -8.86007 1.04817 5
17.7761 -8.77749 1.09151 3
17.974 -8.86546 1.11638 4
17.8475 -8.82054 1.15733 3
nan nan nan nan
27.5643 -13.5341 0.803735 4
27.659 -13.6743 0.853429 4
nan nan nan nan
28.1922 -13.9122 0.941016 6
28.1724 -13.9002 0.996596 5
28.3591 -13.9776 1.04507 5
nan nan nan nan
28.5247 -14.0669 1.1505 3
nan nan nan nan
27.8637 -13.7182 1.27853 3
27.9269 -13.7167 1.33095 3
27.895 -13.8293 1.38694 3
nan nan nan nan
39.2454 -19.4151 1.2886 20
39.212 -19.3616 1.37278 39
39.2419 -19.3482 1.44071 40
39.2517 -19.3077 1.51638 40
39.2501 -19.3126 1.59277 39
39.2741 -19.2877 1.66838 40
39.2133 -19.4347 1.74759 39
39.2914 -19.2661 1.82049 40
39.2208 -19.3988 1.89962 39
39.3052 -19.2503 1.97277 39
39.2558 -19.3509 2.05118 38
39.2725 -19.3053 2.12661 43
39.2665 -19.3166 2.20317 38
39.293 -19.2843 2.27881 35
39.2222 -19.4265 2.3581 42
39.3083 -19.2618 2.43104 39
39.2457 -19.3985 2.51024 41
39.3157 -19.2429 2.58336 41
39.2867 -19.3081 2.73746 40
39.3109 -19.2975 2.89019 41
39.3366 -19.2715 3.04266 40
39.3511 -19.2561 3.19536 39
39.3027 -19.4269 3.73536 35
39.3164 -19.3046 4.49731 40
39.363 -19.3028 5.69046 41
39.3696 -19.2615 6.84634 40
39.4315 -19.1831 8.74594 38
39.4285 -19.3611 10.7359 39
39.537 -19.15 13.5581 40
3.33058 -1.69201 0.25873 4
4.97461 -2.50059 0.00876224 13
6.26757 -3.16053 -0.0367339 12
7.54798 -3.76782 -0.0611949 12
8.82397 -4.42633 -0.0846715 12
10.0431 -5.04119 -0.0896904 11
11.4801 -5.74812 -0.135535 11
12.8427 -6.42141 -0.161353 12
14.1517 -7.08291 -0.18584 4
15.3773 -7.65516 -0.221659 9
15.6615 -7.84477 -0.171811 36
15.6699 -7.82317 -0.0636401 40
15.6718 -7.82196 0.0320563 31
15.671 -7.79398 0.0948057 22
15.6378 -7.76355 0.160822 33
15.6164 -7.80988 0.223117 31
15.7713 -7.86989 0.267969 30
15.9481 -7.93007 0.311884 12
nan nan nan nan
17.3352 -8.66728 0.299515 4
17.2544 -8.60805 0.375594 3
17.2044 -8.53061 0.448789 4
17.2775 -8.57435 0.509656 4
17.2679 -8.60543 0.577476 4
17.3289 -8.63956 0.640208 4
17.2945 -8.57341 0.711221 3
17.5694 -8.71358 0.759224 1
17.6199 -8.77888 0.824052 9
17.7232 -8.8381 0.886305 3
17.7747 -8.87347 0.917699 9
17.7988 -8.81772 0.951454 3
17.8062 -8.88537 0.98534 6
17.8166 -8.83436 1.01982 3
17.9711 -8.95383 1.04613 5
17.8706 -8.90186 1.08636 4
18.0682 -8.99047 1.11149 3
nan nan nan nan
nan nan nan nan
27.5796 -13.6613 0.802996 4
27.7766 -13.8533 0.848549 3
28.0388 -13.9025 0.892273 5
28.1524 -14.015 0.942718 8
28.0969 -13.9851 0.999593 4
28.2564 -14.0498 1.04893 6
28.6109 -14.2611 1.09286 6
28.751 -14.2972 1.1443 6
28.7159 -14.2587 1.20119 5
27.9231 -13.8687 1.27775 3
27.9371 -13.843 1.33157 3
27.8958 -13.9512 1.38788 3
nan nan nan nan
39.2535 -19.59 1.29006 36
39.2158 -19.534 1.37447 39
39.2537 -19.5161 1.44231 42
39.2647 -19.4846 1.51822 40
39.2586 -19.4873 1.59481 39
39.2828 -19.4624 1.67057 39
39.2258 -19.6117 1.74991 37
39.3091 -19.4452 1.82294 39
39.2379 -19.578 1.90224 36
39.3185 -19.4273 1.97555 39
39.2765 -19.5232 2.05399 39
39.2855 -19.4822 2.12971 38
39.2795 -19.4935 2.20643 39
39.3061 -19.4612 2.28222 39
39.2391 -19.6057 2.36172 39
39.326 -19.4409 2.43482 39
39.2628 -19.5777 2.51419 41
39.3379 -19.4242 2.58753 39
39.313 -19.4917 2.74207 39
39.3373 -19.4811 2.89517 42
39.3587 -19.453 3.04789 40
39.3733 -19.4375 3.20093 42
39.324 -19.6084 3.74216 40
39.3371 -19.4768 4.50542 40
39.388 -19.4773 5.70156 41
39.3999 -19.447 6.86128 42
39.4483 -19.3617 8.76324 36
39.4394 -19.5374 10.7564 40
39.5388 -19.3213 13.5813 40
3.31267 -1.69751 0.265367 5
4.96596 -2.51802 0.00912404 13
6.25661 -3.18247 -0.0362778 13
7.53489 -3.79423 -0.0606472 11
8.81293 -4.4594 -0.0850682 11
10.0299 -5.07851 -0.0898783 14
11.4645 -5.79047 -0.135525 14
12.8203 -6.46628 -0.16042 13
14.0562 -7.09664 -0.173834 9
15.3329 -7.69997 -0.217972 11
15.6651 -7.91514 -0.174992 38
15.6781 -7.89576 -0.0671966 40
15.6623 -7.88563 0.0309544 37
15.6572 -7.8554 0.094314 33
15.6685 -7.84711 0.155126 36
15.598 -7.86889 0.223235 35
15.6994 -7.90258 0.274018 25
15.8804 -7.96566 0.317298 31
nan nan nan nan
17.4206 -8.7861 0.289381 4
17.3401 -8.72652 0.365903 4
17.2816 -8.64419 0.440347 3
17.3501 -8.68601 0.502024 4
17.3344 -8.71799 0.570679 4
17.3878 -8.74486 0.634439 4
17.3537 -8.6784 0.705793 4
17.6639 -8.83744 0.751632 3
17.6679 -8.88378 0.820011 9
17.8395 -8.97398 0.878299 3
17.7911 -8.9633 0.916052 4
17.8082 -8.89992 0.950363 3
17.735 -8.92729 0.988931 3
17.7902 -8.89876 1.02087 9
18.0067 -9.05017 1.04386 1
17.9718 -9.03461 1.08085 1
18.1663 -9.11849 1.1064 3
nan nan nan nan
nan nan nan nan
27.5989 -13.7911 0.802073 3
27.804 -13.9884 0.847408 4
28.0081 -14.0092 0.893595 5
27.7729 -13.9473 0.957213 6
28.0723 -14.1014 1.00077 5
nan nan nan nan
nan nan nan nan
27.7985 -13.9448 1.17333 11
nan nan nan nan
27.9863 -14.0221 1.27687 3
27.9602 -13.9762 1.33187 3
nan nan nan nan
39.3293 -19.6477 1.21216 5
39.2698 -19.7696 1.29137 43
39.2636 -19.7292 1.37546 41
39.2748 -19.6978 1.44389 42
39.2859 -19.6663 1.51996 42
39.2753 -19.6668 1.59678 41
39.2996 -19.6418 1.6727 40
39.2419 -19.7913 1.75221 40
39.3181 -19.6294 1.82556 40
39.2542 -19.7575 1.90488 39
39.3355 -19.6067 1.97834 39
39.2885 -19.7005 2.05695 38
39.3022 -19.6617 2.13284 41
39.2961 -19.673 2.20972 40
39.3229 -19.6407 2.28568 40
39.2598 -19.7875 2.36539 42
39.3439 -19.6295 2.4388 39
39.2835 -19.7595 2.51821 41
39.3594 -19.6059 2.59172 40
39.3297 -19.6713 2.74653 40
39.354 -19.6607 2.89996 41
39.3721 -19.6394 3.05314 39
39.408 -19.626 3.20692 39
39.3222 -19.7792 3.74799 40
39.4429 -19.7009 4.51939 36
39.4667 -19.6879 5.71827 36
39.3894 -19.613 6.87128 41
39.4918 -19.5628 8.78602 6
39.4495 -19.714 10.7768 32
41.7474 -20.5811 14.2528 20
3.29447 -1.70348 0.272015 5
4.95724 -2.53542 0.00948596 12
6.24984 -3.20656 -0.0372221 12
7.52171 -3.82059 -0.0600991 11
8.80178 -4.49244 -0.0854635 11
10.0131 -5.11182 -0.089184 11
11.4356 -5.82606 -0.133044 11
12.7934 -6.50883 -0.158741 12
13.9817 -7.12346 -0.165215 14
15.368 -7.78491 -0.225856 11
15.6684 -7.98563 -0.178167 40
15.6816 -7.96625 -0.0701606 40
15.6614 -7.95382 0.0287366 43
15.6697 -7.93028 0.0905713 37
15.6588 -7.9108 0.154164 43
15.6562 -7.96347 0.214673 34
15.6097 -7.92586 0.28202 35
15.7993 -7.99414 0.324126 40
16.0279 -8.09555 0.366403 10
17.5158 -8.90708 0.278324 4
17.4518 -8.85922 0.353707 4
17.4027 -8.78086 0.427887 4
17.4799 -8.8275 0.489391 4
17.5056 -8.87693 0.555299 4
17.5041 -8.88001 0.624122 4
17.4615 -8.80863 0.696707 4
17.7444 -8.95531 0.745007 10
17.8165 -9.03261 0.809283 9
17.7502 -9.00687 0.883252 4
nan nan nan nan
17.7771 -8.96206 0.951656 4
nan nan nan nan
nan nan nan nan
18.1756 -9.21458 1.03447 3
18.0933 -9.17094 1.0743 3
nan nan nan nan
nan nan nan nan
nan nan nan nan
27.6309 -13.9278 0.800579 3
nan nan nan nan
28.0661 -14.161 0.891385 8
27.7955 -14.0804 0.956544 3
27.7312 -14.0455 1.01322 6
27.7787 -14.055 1.06583 5
27.7441 -14.0717 1.12139 4
27.8166 -14.0756 1.17336 4
27.8395 -14.0666 1.227 4
nan nan nan nan
27.9917 -14.1143 1.33198 3
39.2086 -19.9506 1.14094 43
39.331 -19.8118 1.21353 42
39.2496 -19.9314 1.29334 43
39.2659 -19.9023 1.37718 42
39.2817 -19.8732 1.44566 41
39.3019 -19.8461 1.52178 42
39.2913 -19.8466 1.59876 41
39.3156 -19.8217 1.67485 41
39.2528 -19.9689 1.75456 41
39.3377 -19.8023 1.8279 40
39.2652 -19.9352 1.90754 40
39.3472 -19.7843 1.98115 40
39.2964 -19.885 2.06007 38
39.3137 -19.8393 2.13596 40
39.3075 -19.8506 2.21301 38
39.3344 -19.8183 2.28912 40
39.2662 -19.9629 2.36896 40
39.3501 -19.7958 2.44231 40
39.2856 -19.9327 2.52201 40
39.3622 -19.7791 2.59565 40
39.3277 -19.8422 2.75066 40
39.3386 -19.8249 2.90404 39
39.3648 -19.799 3.05742 34
39.3482 -19.7678 3.21005 39
39.3331 -19.9569 3.75443 35
39.5253 -19.9147 4.53196 20
39.5266 -19.8903 5.73333 33
39.4004 -19.7903 6.88405 36
42.7422 -21.3493 9.35989 11
39.4588 -19.8909 10.7972 39
41.705 -20.7412 14.2647 29
3.28429 -1.71352 0.2744 5
4.95265 -2.55495 0.00815368 13
6.24298 -3.23065 -0.0381658 12
7.51276 -3.84912 -0.0607426 12
8.77746 -4.51874 -0.0827463 10
9.99445 -5.14858 -0.0884161 17
11.4153 -5.86602 -0.132209 13
12.7795 -6.55805 -0.159299 10
13.9204 -7.15663 -0.15866 13
15.4865 -7.91306 -0.245936 17
15.6715 -8.05624 -0.181336 40
15.6803 -8.0346 -0.0725334 43
15.6646 -8.02437 0.0259646 41
15.6641 -7.9963 0.0890033 43
15.6578 -7.97903 0.152156 45
15.6403 -8.02768 0.214351 34
15.613 -7.99624 0.279731 57
15.7048 -8.01535 0.332364 25
15.9464 -8.12438 0.373022 19
16.0827 -8.2529 0.417928 20
17.5362 -8.97918 0.344054 4
17.4875 -8.90039 0.418675 4
17.5646 -8.94737 0.480638 4
17.59 -8.99706 0.547006 4
17.5885 -9.00017 0.616282 3
17.533 -8.92162 0.690309 3
17.7931 -9.058 0.740611 3
nan nan nan nan
nan nan nan nan
18.0094 -9.23941 0.901356 1
nan nan nan nan
nan nan nan nan
nan nan nan nan
22.1413 -11.3215 0.822378 4
18.1413 -9.27498 1.0715 3
22.422 -11.4509 0.895427 3
nan nan nan nan
22.5006 -11.5362 0.984111 3
27.6223 -14.0446 0.800843 3
nan nan nan nan
nan nan nan nan
39.3702 -20.115 0.520663 6
27.7577 -14.1809 1.01254 4
39.3928 -20.1036 0.674217 8
nan nan nan nan
nan nan nan nan
39.2932 -20.027 0.908451 4
39.3993 -20.0869 0.982705 12
39.357 -20.0193 1.06057 34
39.2811 -20.1604 1.14067 42
39.3463 -19.992 1.21469 41
39.2778 -20.1185 1.29443 42
39.2719 -20.0779 1.37883 41
39.2843 -20.0556 1.4476 41
39.3081 -20.0218 1.52371 40
39.2975 -20.0222 1.60085 40
39.3175 -19.995 1.67712 39
39.263 -20.1469 1.75692 38
39.3441 -19.978 1.83043 39
39.2711 -20.1108 1.91022 38
39.3537 -19.96 1.98397 39
39.3034 -20.0698 2.06319 38
39.3244 -20.0172 2.1391 37
39.3182 -20.0285 2.21631 38
39.3452 -19.9963 2.29257 35
39.2764 -20.1409 2.37258 38
39.3654 -19.976 2.44612 36
39.3048 -20.1152 2.52606 38
39.3776 -19.9592 2.5998 39
39.3518 -20.0269 2.75531 38
39.3627 -20.0096 2.90906 40
39.389 -19.9837 3.0628 39
39.3725 -19.9524 3.2158 40
39.3609 -20.144 3.76167 41
39.541 -20.1045 4.5407 20
39.5155 -20.0664 5.74224 23
39.4328 -19.9791 6.89958 38
42.72 -21.5247 9.37214 17
39.4892 -20.0793 10.8226 33
41.6879 -20.9143 14.2843 26
3.29468 -1.7329 0.266107 13
4.9438 -2.5723 0.00851655 19
6.21901 -3.24584 -0.0335069 12
7.49938 -3.8754 -0.0601933 12
8.76174 -4.54944 -0.0821037 14
9.98089 -5.18578 -0.0886011 11
11.3948 -5.90592 -0.131374 12
12.761 -6.60497 -0.15911 13
13.8571 -7.18231 -0.151526 10
15.5823 -8.03077 -0.262784 23
15.6698 -8.12469 -0.183885 40
15.6434 -8.0848 -0.0702155 32
15.6498 -8.08592 0.0254332 39
15.6495 -8.05783 0.0885224 38
15.6565 -8.04735 0.150154 36
15.6299 -8.09144 0.213469 42
15.6161 -8.06674 0.277446 38
15.6724 -8.0679 0.333983 35
15.8826 -8.16183 0.377818 19
nan nan nan nan
17.6332 -9.10669 0.333159 4
17.5938 -9.03201 0.407467 4
17.6796 -9.08389 0.469206 4
17.6915 -9.12702 0.537259 4
17.7476 -9.15992 0.602505 10
17.6571 -9.06256 0.679931 4
nan nan nan nan
nan nan nan nan
nan nan nan nan
18.1738 -9.40004 0.890647 1
nan nan nan nan
nan nan nan nan
18.176 -9.33107 0.998184 1
nan nan nan nan
22.2776 -11.4873 0.858404 3
nan nan nan nan
22.4943 -11.6097 0.935634 9
22.4889 -11.6246 0.984467 3
nan nan nan nan
nan nan nan nan
nan nan nan nan
39.3797 -20.2935 0.520527 11
nan nan nan nan
39.3892 -20.2753 0.674845 40
39.2779 -20.2673 0.755898 41
39.335 -20.2592 0.831177 40
39.3342 -20.2212 0.908225 42
39.3379 -20.2289 0.985351 40
39.3536 -20.1908 1.06185 40
39.2807 -20.325 1.14194 42
39.3564 -20.1702 1.21596 41
39.2828 -20.2945 1.29595 42
39.286 -20.2584 1.38037 42
39.2941 -20.2338 1.44934 41
39.3225 -20.2023 1.52556 42
39.3163 -20.205 1.60281 42
39.3365 -20.1778 1.67925 41
39.2848 -20.3229 1.7591 42
39.3632 -20.1608 1.83291 41
39.2895 -20.2936 1.91289 42
39.3728 -20.1428 1.98681 40
39.3255 -20.2458 2.06607 40
39.3432 -20.2 2.14229 42
39.3325 -20.209 2.21964 39
39.3642 -20.1791 2.29611 39
39.3026 -20.3192 2.37619 42
39.3845 -20.1588 2.45001 39
39.3232 -20.2981 2.53013 41
39.4012 -20.1443 2.6041 39
39.3705 -20.2097 2.7599 41
39.3816 -20.1924 2.91399 41
39.4035 -20.1642 3.06796 40
39.3916 -20.1352 3.22143 40
39.3658 -20.3202 3.76793 40
39.537 -20.2765 4.54788 23
39.547 -20.2563 5.7548 17
39.429 -20.1504 6.91073 39
42.3975 -21.548 9.33256 11
39.4708 -20.2435 10.8372 39
41.6873 -21.0963 14.309 26
3.25274 -1.72538 0.285523 13
4.93073 -2.58744 0.0105736 13
6.21199 -3.26984 -0.0344498 12
7.48592 -3.90164 -0.0596437 12
8.75105 -4.58081 -0.0825293 11
9.96284 -5.22067 -0.0878682 12
11.3743 -5.94574 -0.130538 11
12.7424 -6.65185 -0.15892 11
13.8365 -7.23302 -0.151194 9
15.6027 -8.11036 -0.268703 14
15.6722 -8.19552 -0.187044 41
15.6519 -8.15506 -0.0738091 43
15.6569 -8.15894 0.0221121 38
15.6567 -8.13081 0.085338 43
15.6637 -8.12034 0.147107 39
15.6414 -8.16673 0.210058 36
15.685 -8.17184 0.267831 43
15.6973 -8.15015 0.329469 30
15.7923 -8.18519 0.385331 32
15.6937 -8.19227 0.453048 29
15.9178 -8.29134 0.494306 5
17.6818 -9.1553 0.39789 4
17.7497 -9.19838 0.461647 4
17.7791 -9.2509 0.528636 3
17.7245 -9.22647 0.603105 4
17.7318 -9.17924 0.673236 3
nan nan nan nan
nan nan nan nan
nan nan nan nan
18.3003 -9.54659 0.882206 4
nan nan nan nan
21.7138 -11.3136 0.758552 8
nan nan nan nan
nan nan nan nan
nan nan nan nan
nan nan nan nan
nan nan nan nan
22.4217 -11.6892 0.987321 3
22.6246 -11.7027 1.01832 10
22.6119 -11.7741 1.06328 3
nan nan nan nan
nan nan nan nan
39.2368 -20.3907 0.603328 42
39.3759 -20.4427 0.675784 38
39.2868 -20.4458 0.756242 38
39.3173 -20.424 0.832473 38
39.3211 -20.3883 0.909499 39
39.3159 -20.3915 0.986969 40
39.3407 -20.358 1.06335 39
39.284 -20.4922 1.14313 40
39.3613 -20.3465 1.21733 42
39.2783 -20.4661 1.29763 39
39.3083 -20.4438 1.38177 42
39.3031 -20.4124 1.4511 37
39.3362 -20.3831 1.52742 40
39.3211 -20.3812 1.60492 41
39.3591 -20.3632 1.68137 40
39.2926 -20.4924 1.76137 40
39.3814 -20.3439 1.83541 40
39.2939 -20.4699 1.9156 36
39.3778 -20.319 1.98966 41
39.3301 -20.4221 2.06907 39
39.3568 -20.3809 2.14547 39
39.3506 -20.3922 2.22302 39
39.3779 -20.36 2.29962 40
39.3104 -20.4886 2.37965 40
39.3938 -20.3374 2.4538 40
39.3275 -20.4744 2.53403 40
39.4061 -20.3206 2.60814 39
39.3708 -20.3838 2.76415 40
39.3819 -20.3664 2.91853 41
39.4083 -20.3406 3.07289 36
39.4009 -20.3137 3.22679 40
39.361 -20.492 3.77381 35
39.5635 -20.4647 4.55707 29
39.5688 -20.442 5.76654 13
39.4332 -20.3263 6.92299 36
39.648 -20.3251 8.87206 14
39.5214 -20.4438 10.8675 33
nan nan nan nan
3.24679 -1.73679 0.285764 4
4.92177 -2.60471 0.0109367 13
6.19217 -3.28709 -0.0311925 12
7.47236 -3.92783 -0.0590935 12
8.73864 -4.61523 -0.0828891 11
9.94466 -5.2555 -0.0871348 11
11.3623 -5.99009 -0.131344 12
12.7148 -6.69407 -0.157238 13
13.8288 -7.29059 -0.152914 8
15.6184 -8.18789 -0.273972 23
15.6875 -8.27341 -0.192044 42
15.666 -8.23555 -0.0784526 43
15.6636 -8.23211 0.018797 49
15.6679 -8.20624 0.0816187 45
15.6838 -8.20039 0.142496 49
15.6525 -8.2422 0.206653 43
15.6653 -8.23124 0.268006 42
15.6909 -8.2165 0.328264 42
15.7328 -8.22417 0.389663 37
15.6739 -8.2517 0.453329 29
15.9153 -8.36081 0.492961 5
17.7912 -9.29086 0.386321 4
17.8678 -9.33888 0.449872 4
17.8925 -9.3894 0.517828 4
nan nan nan nan
17.8501 -9.31964 0.663234 3
18.2724 -9.5444 0.703562 1
18.2679 -9.58434 0.775521 10
nan nan nan nan
nan nan nan nan
21.652 -11.2979 0.719303 24
21.6522 -11.3777 0.761417 8
21.8596 -11.4165 0.793092 4
21.9908 -11.5366 0.82889 1
nan nan nan nan
22.4382 -11.757 0.893555 3
nan nan nan nan
22.3587 -11.7558 0.989971 1
22.535 -11.7562 1.0221 3
22.5575 -11.8461 1.06549 5
nan nan nan nan
nan nan nan nan
39.2673 -20.5809 0.602576 31
34.1108 -17.8609 0.853765 38
39.2506 -20.6014 0.758005 41
39.33 -20.6052 0.832855 40
39.3118 -20.5579 0.910661 40
39.2977 -20.5564 0.988481 40
39.3315 -20.5276 1.06475 41
34.3834 -18.1046 1.25171 9
39.3832 -20.5323 1.21836 37
39.2864 -20.645 1.29909 25
39.3031 -20.6158 1.38361 37
30.4272 -15.9375 1.57721 28
30.4338 -15.9047 1.63662 35
39.3383 -20.5646 1.60692 39
39.3321 -20.5236 1.6839 40
39.2985 -20.6965 1.76416 39
39.3811 -20.5182 1.838 37
39.3063 -20.6511 1.91831 38
39.391 -20.5002 1.99252 38
39.3427 -20.6033 2.07211 37
39.3652 -20.5597 2.14866 37
39.3545 -20.5688 2.22633 38
39.3864 -20.5389 2.30312 37
39.3119 -20.6904 2.38379 36
39.4024 -20.5163 2.45761 36
39.3399 -20.6557 2.53806 36
39.4192 -20.5018 2.61233 39
39.388 -20.5673 2.76876 37
39.3991 -20.55 2.92349 39
39.4257 -20.5241 3.0782 35
39.414 -20.4948 3.23231 39
39.3909 -20.6825 3.7813 40
39.5492 -20.6325 4.5637 17
39.5633 -20.6144 5.77577 10
39.472 -20.521 6.93967 36
41.7449 -21.5841 9.25179 11
39.5146 -20.6152 10.885 41
41.6582 -21.4477 14.3508 26
3.2408 -1.74818 0.286004 5
4.91276 -2.62196 0.0113001 16
6.185 -3.31103 -0.0321341 12
7.45871 -3.95397 -0.058543 12
8.72178 -4.64731 -0.0822122 11
9.92637 -5.29026 -0.086401 14
11.3501 -6.03443 -0.132149 13
12.6915 -6.73849 -0.156301 11
13.8689 -7.37378 -0.162158 6
15.6205 -8.25867 -0.27731 23
15.7025 -8.35151 -0.197037 42
15.6709 -8.3116 -0.0819185 40
15.6919 -8.31706 0.0126987 47
15.692 -8.28882 0.0762839 42
15.6904 -8.27371 0.139463 48
15.6545 -8.31318 0.204267 39
15.6629 -8.29991 0.266229 45
15.6798 -8.28059 0.327533 32
15.7173 -8.28606 0.389461 37
15.6362 -8.30174 0.455357 34
15.9301 -8.43969 0.489944 8
17.8822 -9.418 0.37638 4
nan nan nan nan
17.9787 -9.51481 0.509243 4
17.986 -9.52278 0.579861 3
17.9455 -9.44935 0.654915 3
18.2214 -9.59887 0.706164 3
18.208 -9.63409 0.778648 10
21.601 -11.4391 0.63555 25
21.5587 -11.4387 0.680688 22
21.586 -11.3595 0.72247 24
21.6256 -11.4603 0.762252 8
21.802 -11.4835 0.795679 4
21.9307 -11.6078 0.831535 3
22.1342 -11.7084 0.86444 1
22.4368 -11.8563 0.893239 3
nan nan nan nan
nan nan nan nan
nan nan nan nan
22.5249 -11.9294 1.06679 6
22.7398 -11.9751 1.10275 6
22.9047 -12.1155 1.14144 4
33.9286 -17.9344 0.793361 33
33.7964 -17.8468 0.864764 37
33.9793 -17.9863 0.925819 36
34.0166 -17.973 0.991668 36
34.0715 -17.969 1.05712 30
34.0929 -17.9853 1.12381 35
34.2082 -18.0053 1.18804 31
33.9725 -18.0476 1.26189 31
30.5277 -16.052 1.39599 20
34.5978 -18.3357 1.38453 12
30.4542 -16.1101 1.52446 30
30.4156 -16.067 1.57884 34
30.4666 -16.0575 1.63779 36
30.5537 -16.1077 1.69704 12
39.3753 -20.7213 1.68586 42
30.6033 -16.2616 1.819 11
39.4022 -20.7044 1.84051 31
30.6405 -16.2353 1.93906 30
nan nan nan nan
30.574 -16.1473 2.05896 3
39.3773 -20.7413 2.15187 38
39.3709 -20.7526 2.22974 32
39.3985 -20.7204 2.30666 37
30.726 -16.3166 2.30346 29
30.7871 -16.1679 2.36098 20
39.378 -20.8513 2.54248 40
39.4271 -20.6811 2.61647 39
39.3955 -20.7465 2.77322 42
39.4112 -20.7315 2.92836 38
39.4423 -20.708 3.08352 40
39.4263 -20.6763 3.23784 38
39.4022 -20.8642 3.78801 35
39.5519 -20.8098 4.57149 12
41.3432 -21.7256 5.95594 8
39.4659 -20.693 6.95086 41
41.428 -21.6037 9.21288 11
39.5331 -20.8006 10.9085 34
41.5781 -21.5902 14.3526 29
3.23477 -1.75956 0.286245 4
4.90368 -2.63917 0.0116638 12
6.16506 -3.32812 -0.0288777 9
7.44497 -3.98007 -0.057992 11
8.697 -4.67318 -0.0794959 10
9.90795 -5.32496 -0.0856667 11
11.3248 -6.07176 -0.130489 12
12.668 -6.78284 -0.155363 10
13.9218 -7.46436 -0.173442 6
15.6223 -8.32957 -0.280643 14
15.7083 -8.42512 -0.200793 42
15.6813 -8.3874 -0.0860207 42
15.7023 -8.39294 0.00883973 42
15.6982 -8.36231 0.0731192 42
15.701 -8.34952 0.135913 42
15.6693 -8.39131 0.200369 40
15.6734 -8.3757 0.262993 39
15.6948 -8.35873 0.323982 30
15.7279 -8.36198 0.386546 39
15.6731 -8.39159 0.449974 31
15.9314 -8.51173 0.48819 8
17.9769 -9.54823 0.366058 4
18.0708 -9.60629 0.429079 4
18.0422 -9.6292 0.502508 5
18.1023 -9.66542 0.569323 3
18.0711 -9.59623 0.644294 3
18.2055 -9.67182 0.70625 3
18.1038 -9.66004 0.784741 10
21.517 -11.4909 0.639938 25
21.5231 -11.5162 0.68201 22
21.5684 -11.4465 0.72275 24
21.5724 -11.5287 0.764608 23
21.7751 -11.5666 0.796552 4
21.8461 -11.6608 0.835511 3
21.8553 -11.6587 0.878335 3
22.0339 -11.742 0.9128 3
nan nan nan nan
nan nan nan nan
nan nan nan nan
22.4788 -12.0056 1.06863 8
22.7067 -12.0591 1.10407 6
22.8359 -12.1813 1.14413 4
33.5571 -17.8882 0.806877 30
33.6148 -17.9013 0.871271 36
33.6739 -17.9754 0.936016 35
33.645 -17.9272 1.00336 39
33.9115 -18.0362 1.06232 36
33.9461 -18.0596 1.12848 35
34.026 -18.0613 1.1934 36
33.8112 -18.1059 1.26648 39
30.4406 -16.1421 1.39886 29
30.433 -16.2651 1.46025 36
30.3934 -16.214 1.52678 25
30.3726 -16.1801 1.5809 34
30.3707 -16.1426 1.64052 36
30.2987 -16.1086 1.70127 29
39.4044 -20.9126 1.68795 30
30.4948 -16.327 1.82137 10
nan nan nan nan
30.5749 -16.3375 1.94134 29
30.5015 -16.1455 1.99928 37
30.4733 -16.2304 2.06114 3
30.3808 -16.1378 2.1202 39
nan nan nan nan
nan nan nan nan
30.6834 -16.4177 2.30559 33
39.4261 -20.8796 2.46537 40
39.3623 -21.0192 2.54618 40
39.443 -20.8653 2.62076 39
39.4111 -20.9308 2.77786 40
39.4269 -20.9158 2.93335 42
39.4493 -20.8876 3.08862 42
39.451 -20.8651 3.2438 39
39.3952 -21.0368 3.79392 41
39.5715 -20.9968 4.58044 11
41.0469 -21.7529 5.93786 9
39.4767 -20.8745 6.96426 36
41.1245 -21.6283 9.17622 11
39.555 -20.9886 10.9329 39
41.2449 -21.6001 14.2791 20
3.22473 -1.76873 0.288615 5
4.89086 -2.65325 0.013702 8
6.15351 -3.3497 -0.02842 3
7.43114 -4.00611 -0.0574408 11
8.68156 -4.70207 -0.0788832 17
9.88941 -5.35959 -0.0849316 17
11.3026 -6.11332 -0.129608 13
12.6487 -6.82945 -0.155168 13
13.9524 -7.54362 -0.181296 5
15.634 -8.40254 -0.285309 25
15.7051 -8.49416 -0.203314 42
15.6841 -8.45592 -0.0890062 30
15.6906 -8.4572 0.00777352 41
15.6924 -8.42615 0.0715222 45
15.7026 -8.4208 0.133415 38
15.675 -8.46493 0.19749 40
15.6793 -8.44931 0.260251 41
15.6934 -8.42492 0.322261 41
15.7294 -8.43337 0.384542 37
15.657 -8.4534 0.449828 36
15.9499 -8.59334 0.484769 12
16.4954 -8.83143 0.499684 6
16.7588 -8.98371 0.542055 32
18.1315 -9.75833 0.493593 3
18.1915 -9.79481 0.5609 3
18.1624 -9.72208 0.636281 3
18.1805 -9.74007 0.706967 3
nan nan nan nan
21.5208 -11.5897 0.638741 25
21.5048 -11.6032 0.682253 39
21.5127 -11.5086 0.725311 40
21.5233 -11.5992 0.766711 23
21.7258 -11.6378 0.79865 4
21.9261 -11.7971 0.830691 3
nan nan nan nan
21.9864 -11.8203 0.91473 1
nan nan nan nan
22.2433 -11.9941 0.994518 3
nan nan nan nan
22.428 -12.0793 1.07066 6
22.6557 -12.1336 1.1061 6
22.7954 -12.257 1.14573 4
33.5166 -18.0171 0.808574 13
33.483 -17.9889 0.876105 37
33.523 -18.0455 0.941298 37
33.5558 -18.0303 1.00663 39
33.6125 -18.0128 1.0713 36
33.6231 -18.0385 1.13768 38
33.8041 -18.0951 1.19969 38
33.6938 -18.1871 1.27011 38
33.8626 -18.108 1.33217 32
30.3689 -16.3741 1.4627 23
30.2398 -16.2679 1.53054 34
30.2852 -16.2695 1.58357 36
30.2581 -16.2049 1.64327 34
30.1718 -16.1765 1.70421 31
30.277 -16.2032 1.76268 32
30.5637 -16.4945 1.82279 36
30.5736 -16.3393 1.88094 33
30.4752 -16.428 1.9438 34
30.4097 -16.2331 2.00153 33
30.3637 -16.3083 2.06328 1
30.3211 -16.2284 2.12218 38
30.315 -16.2499 2.18259 42
30.462 -16.292 2.24301 36
30.642 -16.5264 2.30788 31
39.4809 -21.0854 2.4698 29
39.4082 -21.2297 2.55095 31
31.2667 -16.6801 2.49575 17
31.3187 -16.7589 2.62167 20
39.4506 -21.1051 2.93857 41
39.4731 -21.0769 3.09422 36
39.4529 -21.0426 3.24909 39
39.4138 -21.2239 3.80106 34
39.5903 -21.1841 4.58941 11
40.764 -21.7855 5.92103 10
39.5129 -21.0704 6.981 35
40.7952 -21.6371 9.13495 11
39.5805 -21.1794 10.9584 33
40.9122 -21.6079 14.2055 14
3.21466 -1.77786 0.290984 5
3.34646 -1.82993 0.643634 3
nan nan nan nan
7.41722 -4.03211 -0.0568891 10
8.66602 -4.73092 -0.07827 11
9.87507 -5.39652 -0.0851114 11
11.278 -6.14848 -0.12799 11
12.6336 -6.87837 -0.155716 11
13.9696 -7.61607 -0.187092 4
15.6222 -8.4666 -0.286711 23
15.7191 -8.57277 -0.208286 43
15.691 -8.52692 -0.0925705 42
15.7134 -8.54046 0.00225544 39
15.7067 -8.50462 0.0672889 41
15.7082 -8.49456 0.1304 42
15.6804 -8.53868 0.194616 42
15.6847 -8.52306 0.257515 43
15.7034 -8.50104 0.319193 42
15.7307 -8.50487 0.382544 42
15.68 -8.53663 0.445768 58
15.9155 -8.64664 0.486371 12
16.4558 -8.88427 0.501708 3
18.2797 -9.88173 0.407603 3
18.2596 -9.9096 0.481404 4
18.337 -9.95587 0.547968 3
18.3172 -9.88738 0.623387 3
nan nan nan nan
21.5547 -11.6949 0.549932 10
21.4802 -11.6648 0.640339 54
21.4774 -11.6854 0.683041 39
21.4681 -11.5813 0.727166 40
21.4827 -11.6743 0.768309 35
21.6851 -11.7137 0.80026 4
21.9133 -11.8841 0.830825 3
nan nan nan nan
21.9471 -11.8932 0.916279 1
nan nan nan nan
nan nan nan nan
22.305 -12.0303 1.03153 3
22.3857 -12.1576 1.07233 5
22.5957 -12.2031 1.10847 6
22.7591 -12.3349 1.14717 5
33.3745 -18.0912 0.81388 23
33.4101 -18.0927 0.878908 30
33.4027 -18.1314 0.945595 26
33.44 -18.1188 1.01069 33
33.4539 -18.086 1.07647 38
33.5116 -18.1296 1.14142 39
33.6748 -18.1773 1.20376 41
30.4583 -16.5717 1.34148 23
30.5077 -16.4515 1.39979 36
30.31 -16.4724 1.46492 37
30.2268 -16.3972 1.5321 30
30.2458 -16.3846 1.58557 30
nan nan nan nan
nan nan nan nan
30.5811 -16.5036 1.76208 17
30.5967 -16.6435 1.82444 36
30.5384 -16.4578 1.88311 40
30.4293 -16.5338 1.94593 37
30.322 -16.3225 2.00378 41
30.2846 -16.4022 2.06549 1
30.2967 -16.3585 2.12468 36
30.2141 -16.3318 2.18457 28
30.4138 -16.403 2.24534 35
30.3498 -16.499 2.30766 31
30.845 -16.6125 2.37052 36
30.884 -16.7703 2.43522 10
31.1202 -16.7417 2.49666 14
31.0459 -16.7596 2.6199 17
39.4646 -21.2901 2.94359 42
39.4917 -21.2642 3.09971 41
39.4804 -21.2346 3.25522 42
39.4441 -21.4092 3.80846 39
39.5731 -21.3528 4.59609 33
39.5911 -21.3366 5.81829 31
39.4958 -21.2386 6.99111 41
39.6385 -21.2011 8.94847 39
39.5917 -21.3543 10.9797 33
39.7009 -21.1455 13.869 38
3.19668 -1.78252 0.297611 5
nan nan nan nan
2.2963 -1.26883 1.249 50
7.40321 -4.05806 -0.0563369 5
8.65468 -4.76206 -0.0786912 11
9.84767 -5.4263 -0.0825458 17
11.2652 -6.19264 -0.128789 14
12.6053 -6.92013 -0.154032 13
14.0125 -7.70305 -0.196977 6
15.6318 -8.54257 -0.291308 14
15.7153 -8.64203 -0.210797 43
15.6889 -8.59329 -0.0949621 42
15.7098 -8.60967 8.53539e-05 41
15.7075 -8.57614 0.0646809 42
15.7047 -8.5637 0.128435 41
15.6768 -8.6078 0.192757 42
15.6855 -8.59456 0.255272 42
15.7028 -8.57531 0.317129 38
15.7272 -8.57409 0.381003 40
15.6895 -8.61293 0.443021 38
15.9028 -8.71177 0.485885 23
16.7136 -9.09902 0.4765 9
17.0153 -9.27483 0.516582 6
18.3563 -10.0451 0.471799 4
18.4379 -10.0941 0.538543 3
18.4448 -10.0396 0.612507 3
21.4511 -11.6865 0.470883 3
21.5095 -11.7677 0.551831 85
21.4438 -11.7421 0.641659 46
21.4366 -11.7603 0.68464 43
21.4232 -11.6538 0.729022 50
21.4375 -11.7469 0.77016 32
21.6398 -11.7869 0.802114 4
21.6898 -11.8561 0.842236 3
21.7453 -11.8942 0.882512 3
21.8836 -11.9578 0.918998 3
nan nan nan nan
nan nan nan nan
22.2454 -12.0986 1.03395 3
22.3476 -12.2381 1.07381 6
22.5442 -12.2772 1.1105 17
22.7357 -12.4199 1.14812 4
33.2936 -18.198 0.816987 17
33.338 -18.2045 0.881687 35
33.3086 -18.2311 0.949051 33
33.3371 -18.2139 1.01434 34
33.3248 -18.1668 1.08078 38
33.3911 -18.2154 1.14538 25
30.4984 -16.6001 1.28008 17
33.4323 -18.3333 1.27791 17
30.4941 -16.5817 1.40119 17
nan nan nan nan
30.1519 -16.493 1.53462 38
nan nan nan nan
nan nan nan nan
30.5235 -16.6404 1.70412 17
30.8395 -16.7823 1.76189 20
30.8132 -16.8939 1.82503 29
30.8147 -16.7457 1.88409 29
30.3495 -16.6279 1.94824 37
30.2341 -16.4115 2.00603 38
30.1262 -16.4527 2.06752 1
30.1911 -16.4378 2.12674 37
30.1613 -16.4395 2.18684 35
30.1499 -16.3967 2.24593 34
30.0582 -16.4698 2.3074 41
30.1321 -16.3646 2.36493 37
nan nan nan nan
30.754 -16.6833 2.49405 36
30.8788 -16.8158 2.62021 28
39.4734 -21.473 2.94852 42
39.4962 -21.4448 3.10485 41
39.4806 -21.4127 3.26053 42
nan nan nan nan
39.485 -21.4836 4.59816 41
29.8859 -16.2409 4.88987 36
39.5173 -21.4282 7.00622 38
39.5769 -21.3461 8.9537 40
39.6117 -21.5528 11.0054 33
39.7199 -21.3338 13.9001 40
3.19052 -1.79374 0.29785 5
nan nan nan nan
2.28351 -1.27218 1.25197 42
7.38911 -4.08396 -0.0557845 3
8.63811 -4.79233 -0.0780447 10
9.82878 -5.46072 -0.0818098 13
11.2437 -6.23201 -0.127948 12
12.5812 -6.96417 -0.153091 12
13.9553 -7.73519 -0.191153 8
15.6613 -8.63342 -0.299037 23
15.7068 -8.70895 -0.21269 41
15.698 -8.66967 -0.0990405 30
15.6971 -8.67414 -0.000967503 40
15.6979 -8.64572 0.0632151 42
15.7097 -8.63771 0.125431 42
15.6816 -8.6818 0.189894 42
15.6904 -8.66858 0.252548 43
15.7063 -8.65209 0.314602 43
15.7409 -8.65299 0.377661 43
15.6855 -8.68217 0.441585 40
15.868 -8.76487 0.487489 20
16.7108 -9.17707 0.475006 13
17.0179 -9.35343 0.514788 10
nan nan nan nan
nan nan nan nan
16.4663 -9.04088 0.760682 4
21.5239 -11.8239 0.464342 33
21.4727 -11.8452 0.55314 99
21.4334 -11.8338 0.641312 42
21.4042 -11.84 0.685702 39
21.3848 -11.7347 0.730435 47
21.4008 -11.8241 0.771508 29
21.5986 -11.8624 0.803726 4
21.6352 -11.9246 0.844557 3
21.7256 -11.9822 0.883005 3
21.8899 -12.0606 0.918242 3
nan nan nan nan
nan nan nan nan
22.1834 -12.1704 1.03645 3
22.3092 -12.3184 1.0753 6
22.4969 -12.3534 1.11235 8
22.7491 -12.5306 1.14767 3
33.2169 -18.3069 0.819938 28
33.2087 -18.2846 0.886382 31
33.2098 -18.328 0.952644 28
33.2296 -18.306 1.01813 36
33.2318 -18.2743 1.08412 38
33.288 -18.3102 1.14888 39
33.4245 -18.3447 1.21167 37
30.5038 -16.8735 1.34251 28
30.493 -16.7193 1.40233 34
30.4438 -16.8214 1.46502 35
nan nan nan nan
nan nan nan nan
nan nan nan nan
30.4915 -16.7613 1.70614 28
30.6975 -16.8441 1.76483 31
30.6592 -16.9559 1.82797 13
30.7517 -16.8507 1.8864 34
30.3657 -16.7748 1.95037 37
30.2468 -16.5553 2.00829 35
30.108 -16.5794 2.06986 1
30.0517 -16.505 2.12876 34
30.0818 -16.5326 2.18895 33
