# .PCD v0.7 - Point Cloud Data file format
VERSION 0.7
FIELDS x y z intensity
SIZE 4 4 4 4
TYPE F F F F
COUNT 1 1 1 1
WIDTH 1760
HEIGHT 1
VIEWPOINT 0 0 0 1 0 0 0
POINTS 1760
DATA ascii
28.6244 -14.2678 1.09243 6
28.7555 -14.2995 1.14416 6
28.707 -14.2542 1.20144 5
27.9321 -13.8732 1.27752 3
27.9371 -13.843 1.33157 3
27.9226 -13.9646 1.38729 3
nan nan nan nan
39.2535 -19.59 1.29006 36
39.2158 -19.534 1.37447 39
39.2537 -19.5161 1.44231 41
39.2647 -19.4846 1.51822 38
39.2586 -19.4873 1.59481 40
39.2828 -19.4624 1.67057 40
39.2258 -19.6117 1.74991 37
39.3046 -19.443 1.82296 40
39.2334 -19.5758 1.90225 36
39.314 -19.425 1.97555 38
39.272 -19.521 2.05399 39
39.2855 -19.4822 2.12971 39
39.275 -19.4913 2.20641 39
39.3061 -19.4612 2.28222 40
39.2391 -19.6057 2.36172 41
39.326 -19.4409 2.43482 41
39.2672 -19.5799 2.51425 41
39.3379 -19.4242 2.58753 40
39.313 -19.4917 2.74207 41
39.3373 -19.4811 2.89517 40
39.3587 -19.453 3.04789 41
39.3733 -19.4375 3.20093 41
39.324 -19.6084 3.74216 41
39.3281 -19.4724 4.50485 41
39.3924 -19.4795 5.70198 39
39.391 -19.4426 6.86018 42
39.4572 -19.366 8.76476 36
39.4438 -19.5396 10.7573 40
39.5388 -19.3213 13.5813 40
3.30864 -1.69545 0.267499 5
4.97435 -2.52228 0.00573361 13
6.26089 -3.18465 -0.037679 13
7.52622 -3.78986 -0.0582621 11
8.81293 -4.4594 -0.0850682 11
10.0343 -5.08073 -0.0907962 14
11.4689 -5.79269 -0.136348 14
12.8203 -6.46628 -0.16042 12
14.0606 -7.09887 -0.17452 8
15.3418 -7.70442 -0.219258 11
15.6651 -7.91514 -0.174992 38
15.6737 -7.89352 -0.0666101 40
15.6579 -7.8834 0.031514 37
15.6572 -7.8554 0.094314 33
15.6685 -7.84711 0.155126 36
15.6025 -7.87113 0.222727 35
15.7038 -7.90482 0.273527 25
15.8893 -7.97013 0.316352 30
nan nan nan nan
17.4161 -8.78386 0.289819 4
17.3401 -8.72652 0.365903 4
17.2905 -8.64865 0.43954 3
17.3546 -8.68824 0.501637 4
17.3403 -8.7172 0.570248 4
17.3923 -8.7471 0.634088 4
17.3626 -8.68287 0.705124 4
17.6684 -8.83967 0.751315 3
17.7007 -8.89638 0.817854 6
17.8439 -8.97622 0.878017 3
17.7822 -8.95881 0.916598 4
17.8126 -8.90215 0.950099 3
17.8064 -8.96323 0.984844 3
17.759 -8.88311 1.02259 9
17.9219 -9.00757 1.04838 1
17.9689 -9.02923 1.08101 1
18.1707 -9.12073 1.10618 3
nan nan nan nan
nan nan nan nan
27.6168 -13.8 0.801295 3
27.7103 -13.9413 0.851307 4
28.0304 -14.0204 0.892709 5
27.7685 -13.9451 0.957381 6
28.0837 -14.101 1.00035 5
nan nan nan nan
nan nan nan nan
27.8164 -13.9538 1.1728 11
nan nan nan nan
27.9997 -14.0288 1.27652 3
27.9289 -13.9606 1.33262 3
27.8826 -14.0665 1.38912 1
39.3506 -19.6498 1.21166 5
39.2832 -19.7763 1.29113 43
39.2681 -19.7314 1.37539 41
39.2658 -19.6933 1.44401 41
39.2725 -19.6596 1.52013 41
39.2753 -19.6668 1.59678 39
39.2862 -19.6351 1.67281 40
39.2285 -19.7845 1.7523 41
39.326 -19.6247 1.8254 40
39.2542 -19.7575 1.90488 39
39.3355 -19.6067 1.97834 39
39.2885 -19.7005 2.05695 38
39.3067 -19.6639 2.13285 41
39.2961 -19.673 2.20972 40
39.3229 -19.6407 2.28568 40
39.2598 -19.7875 2.36539 42
39.3474 -19.6227 2.43865 41
39.2835 -19.7595 2.51821 40
39.3594 -19.6059 2.59172 41
39.3297 -19.6713 2.74653 40
39.354 -19.6607 2.89996 41
39.38 -19.6348 3.05312 39
39.408 -19.626 3.20692 39
39.3267 -19.7814 3.74819 40
39.434 -19.6964 4.51882 34
39.4667 -19.6879 5.71827 36
39.3894 -19.613 6.87128 41
42.8257 -21.2047 9.35831 8
39.4538 -19.7162 10.7778 32
41.7517 -20.5832 14.2541 20
3.29848 -1.70556 0.269884 5
4.96143 -2.53757 0.00779104 12
6.24984 -3.20656 -0.0372221 12
7.51305 -3.81619 -0.0577145 11
8.79743 -4.49022 -0.0844262 11
10.0166 -5.11581 -0.090065 11
11.4444 -5.83053 -0.13469 11
12.7978 -6.51108 -0.159487 11
13.9861 -7.12571 -0.165901 14
15.3724 -7.78715 -0.226499 11
15.664 -7.98338 -0.177551 39
15.686 -7.9685 -0.0707471 41
15.6614 -7.95382 0.0287366 45
15.6697 -7.93028 0.0905713 37
15.6588 -7.9108 0.154164 43
15.6548 -7.96621 0.21473 34
15.6097 -7.92586 0.28202 33
15.8037 -7.99638 0.323653 38
16.0235 -8.09331 0.366858 9
17.5142 -8.91014 0.278388 4
17.4518 -8.85922 0.353707 4
17.4027 -8.78086 0.427887 4
17.4799 -8.8275 0.489391 4
17.5056 -8.87693 0.555299 4
17.5041 -8.88001 0.624122 4
17.4615 -8.80863 0.696707 4
17.7488 -8.95756 0.744691 10
17.8165 -9.03261 0.809283 6
17.7636 -9.01364 0.882409 4
nan nan nan nan
17.786 -8.96656 0.951128 4
nan nan nan nan
nan nan nan nan
18.18 -9.21684 1.03423 3
18.0933 -9.17094 1.0743 3
nan nan nan nan
nan nan nan nan
nan nan nan nan
27.6399 -13.9323 0.80019 3
27.6482 -14.0311 0.853878 3
28.0795 -14.1677 0.890854 8
27.791 -14.0781 0.956712 3
27.9318 -14.1471 1.00606 5
27.8322 -14.0821 1.06402 0
27.7486 -14.074 1.12125 9
27.8186 -14.0827 1.17333 4
27.8529 -14.0733 1.22663 4
nan nan nan nan
27.9247 -14.0805 1.33358 3
39.2175 -19.9552 1.14074 43
39.3265 -19.8095 1.21362 42
39.2496 -19.9314 1.29334 42
39.2659 -19.9023 1.37718 42
39.2782 -19.88 1.44581 41
39.2974 -19.8439 1.52183 41
39.2913 -19.8466 1.59876 41
39.3156 -19.8217 1.67485 40
39.2528 -19.9689 1.75456 41
39.3377 -19.8023 1.8279 40
39.2652 -19.9352 1.90754 40
39.3472 -19.7843 1.98115 40
39.2964 -19.885 2.06007 38
39.3137 -19.8393 2.13596 41
39.3075 -19.8506 2.21301 39
39.33 -19.8161 2.28909 39
39.2618 -19.9606 2.36892 40
39.3456 -19.7935 2.44226 40
39.2812 -19.9304 2.52195 40
39.3577 -19.7768 2.59559 40
39.3232 -19.8399 2.75057 40
39.3342 -19.8226 2.90394 39
39.3648 -19.799 3.05742 39
39.3482 -19.7678 3.21005 40
39.3331 -19.9569 3.75443 35
39.5219 -19.9216 4.53211 20
39.5276 -19.8994 5.73389 32
39.4004 -19.7903 6.88405 36
42.7466 -21.3515 9.36065 11
39.4588 -19.8909 10.7972 39
41.718 -20.7477 14.2685 31
3.28057 -1.71086 0.276519 5
4.95683 -2.55711 0.00645912 13
6.23445 -3.22623 -0.0353644 12
7.51276 -3.84912 -0.0607426 12
8.78181 -4.52098 -0.0837836 11
10.0076 -5.15533 -0.0911677 17
11.4328 -5.87504 -0.1355 13
12.7839 -6.56031 -0.160045 13
13.9172 -7.15193 -0.158026 20
15.4953 -7.91757 -0.247221 17
15.6671 -8.05398 -0.180721 40
15.6759 -8.03233 -0.0719471 43
15.6601 -8.02211 0.0265236 41
15.6641 -7.9963 0.0890033 43
15.6534 -7.97677 0.152681 37
15.6403 -8.02768 0.214351 34
15.6086 -7.99397 0.28022 39
15.7137 -8.01988 0.331419 25
15.942 -8.12211 0.373476 19
16.0871 -8.25517 0.41749 17
17.5362 -8.97918 0.344054 4
17.4875 -8.90039 0.418675 4
17.5601 -8.94511 0.481024 4
17.5856 -8.99478 0.547374 4
17.5752 -8.99336 0.617334 3
17.5418 -8.92615 0.689643 3
17.7842 -9.05347 0.741243 3
nan nan nan nan
nan nan nan nan
18.0554 -9.25905 0.898569 1
nan nan nan nan
nan nan nan nan
nan nan nan nan
22.1546 -11.3283 0.821665 7
18.1457 -9.27726 1.07127 3
22.422 -11.4509 0.895427 3
nan nan nan nan
22.6538 -11.6098 0.977176 4
27.6268 -14.0469 0.800649 3
nan nan nan nan
nan nan nan nan
39.3702 -20.115 0.520663 6
27.7844 -14.1945 1.01159 4
39.3795 -20.0968 0.674667 9
nan nan nan nan
nan nan nan nan
39.2531 -20.0066 0.909568 4
39.2657 -20.0188 0.986166 9
39.3079 -19.9944 1.06175 34
39.2633 -20.1513 1.14106 42
39.3508 -19.9942 1.2146 40
39.2689 -20.1139 1.29459 43
39.2763 -20.0802 1.37876 41
39.2843 -20.0556 1.4476 41
39.3081 -20.0218 1.52371 41
39.2975 -20.0222 1.60085 39
39.3175 -19.995 1.67712 41
39.2586 -20.1446 1.75695 38
39.3441 -19.978 1.83043 39
39.2711 -20.1108 1.91022 39
39.3537 -19.96 1.98397 39
39.3113 -20.0652 2.06306 38
39.3244 -20.0172 2.1391 37
39.3182 -20.0285 2.21631 38
39.3452 -19.9963 2.29257 35
39.2764 -20.1409 2.37258 38
39.3654 -19.976 2.44612 36
39.3004 -20.1129 2.526 38
39.3776 -19.9592 2.5998 39
39.3518 -20.0269 2.75531 37
39.3627 -20.0096 2.90906 39
39.389 -19.9837 3.0628 35
39.3725 -19.9524 3.2158 39
39.3609 -20.144 3.76167 41
39.541 -20.1045 4.5407 20
39.5199 -20.0687 5.74266 23
39.4195 -19.9724 6.89793 38
42.7156 -21.5225 9.37138 17
39.4848 -20.0771 10.8216 40
41.6965 -20.9187 14.2869 26
3.27867 -1.72447 0.27463 12
4.93963 -2.57013 0.0102109 19
6.22752 -3.25028 -0.0363076 11
7.49507 -3.87317 -0.0590014 12
8.76174 -4.54944 -0.0821037 10
9.98525 -5.18804 -0.0895181 11
11.4124 -5.91499 -0.134663 11
12.7566 -6.6027 -0.158365 10
13.8571 -7.18231 -0.151526 10
15.5779 -8.0285 -0.262142 23
15.6654 -8.1224 -0.183269 41
15.639 -8.08252 -0.0696297 32
15.6498 -8.08592 0.0254332 40
15.6495 -8.05783 0.0885224 38
15.6565 -8.04735 0.150154 36
15.6299 -8.09144 0.213469 42
15.6161 -8.06674 0.277446 37
15.6547 -8.05879 0.335872 36
15.8738 -8.15728 0.378726 19
nan nan nan nan
17.6332 -9.10669 0.333159 4
17.5983 -9.03428 0.407065 4
17.6796 -9.08389 0.469206 4
17.6871 -9.12473 0.537627 4
17.7476 -9.15992 0.602505 10
17.6527 -9.06028 0.680264 4
nan nan nan nan
nan nan nan nan
nan nan nan nan
18.1827 -9.40463 0.890104 1
nan nan nan nan
18.2263 -9.41521 0.959221 3
18.176 -9.33107 0.998184 1
nan nan nan nan
22.2643 -11.4805 0.859089 3
nan nan nan nan
22.4766 -11.6005 0.936478 7
22.4534 -11.6062 0.986076 4
nan nan nan nan
nan nan nan nan
nan nan nan nan
39.3709 -20.2889 0.520862 11
nan nan nan nan
39.3803 -20.2708 0.675145 40
39.2823 -20.2696 0.755757 41
39.3039 -20.2431 0.832105 40
39.3031 -20.2052 0.909092 42
39.3156 -20.2175 0.985927 37
39.318 -20.1726 1.0627 40
39.254 -20.3113 1.14253 41
39.3431 -20.1634 1.21623 41
39.2784 -20.2922 1.29603 41
39.286 -20.2584 1.38037 42
39.2941 -20.2338 1.44934 42
39.3092 -20.1954 1.52572 42
39.3119 -20.2027 1.60285 36
39.3187 -20.1687 1.6794 42
39.2626 -20.3114 1.75924 42
39.3632 -20.1608 1.83291 41
39.2895 -20.2936 1.91289 42
39.3684 -20.1405 1.98681 39
39.3255 -20.2458 2.06607 40
39.3432 -20.2 2.14229 42
39.3325 -20.209 2.21964 39
39.3642 -20.1791 2.29611 39
39.3026 -20.3192 2.37619 42
39.3845 -20.1588 2.45001 39
39.3232 -20.2981 2.53013 41
39.4012 -20.1443 2.6041 39
39.3705 -20.2097 2.7599 41
39.3771 -20.1901 2.91389 41
39.4035 -20.1642 3.06796 40
39.3782 -20.1283 3.22101 39
39.3746 -20.3248 3.76833 40
39.5415 -20.2787 4.54816 23
39.5603 -20.2631 5.75607 17
39.4334 -20.1526 6.91128 39
42.3975 -21.548 9.33256 11
39.4926 -20.2546 10.8421 32
41.6873 -21.0963 14.309 26
3.26873 -1.73386 0.277002 12
4.93073 -2.58744 0.0105736 16
6.20775 -3.26761 -0.0330496 6
7.48161 -3.89939 -0.0584521 12
8.74671 -4.57855 -0.0814927 17
9.96719 -5.22295 -0.0887849 12
11.3874 -5.95259 -0.133004 11
12.7336 -6.64727 -0.157429 12
13.8365 -7.23302 -0.151194 9
15.6071 -8.11265 -0.269344 14
15.6722 -8.19552 -0.187044 41
15.6519 -8.15506 -0.0738091 43
15.6569 -8.15894 0.0221121 37
15.6567 -8.13081 0.085338 43
15.6725 -8.12491 0.146059 38
15.6546 -8.17363 0.208538 35
15.6806 -8.16954 0.26832 43
15.7061 -8.15474 0.328525 29
15.7834 -8.18061 0.386238 32
15.6981 -8.19457 0.452611 29
15.9266 -8.29594 0.493467 5
17.6862 -9.15759 0.397488 4
17.7408 -9.19379 0.462416 4
17.7039 -9.21178 0.534882 3
17.7068 -9.21726 0.604505 4
17.7362 -9.18153 0.672903 3
nan nan nan nan
nan nan nan nan
nan nan nan nan
18.3092 -9.55121 0.881663 4
nan nan nan nan
21.7182 -11.3159 0.758298 8
nan nan nan nan
nan nan nan nan
nan nan nan nan
nan nan nan nan
nan nan nan nan
nan nan nan nan
nan nan nan nan
22.5986 -11.7672 1.06383 9
nan nan nan nan
nan nan nan nan
39.2324 -20.3884 0.603486 44
39.3759 -20.4427 0.675784 40
39.2823 -20.4435 0.756383 38
39.3173 -20.424 0.832473 38
39.3211 -20.3883 0.909499 36
39.3159 -20.3915 0.986969 40
39.3451 -20.3603 1.06324 42
39.284 -20.4922 1.14313 36
39.3658 -20.3488 1.21724 42
39.2961 -20.4753 1.29731 42
39.3127 -20.4461 1.3817 41
39.3031 -20.4124 1.4511 42
39.3317 -20.3808 1.52747 41
39.3211 -20.3812 1.60492 41
39.3547 -20.3609 1.68141 42
39.2882 -20.49 1.7614 40
39.377 -20.3416 1.83543 40
39.2983 -20.4722 1.91559 42
39.3823 -20.3213 1.98966 40
39.3345 -20.4244 2.06908 40
39.3568 -20.3809 2.14547 40
39.3506 -20.3922 2.22302 39
39.3734 -20.3577 2.29959 40
39.306 -20.4863 2.37961 38
39.3938 -20.3374 2.4538 40
39.3275 -20.4744 2.53403 40
39.4061 -20.3206 2.60814 39
39.3708 -20.3838 2.76415 40
39.3819 -20.3664 2.91853 41
39.4083 -20.3406 3.07289 36
39.4009 -20.3137 3.22679 40
39.3698 -20.4966 3.77421 34
39.559 -20.4624 4.55678 29
39.5777 -20.4466 5.76739 13
39.4376 -20.3286 6.92354 36
39.6568 -20.3296 8.87358 14
39.5301 -20.4483 10.8694 33
nan nan nan nan
3.23882 -1.73252 0.290024 4
4.92177 -2.60471 0.0109367 13
6.20065 -3.29159 -0.0339918 1
7.46806 -3.92557 -0.0579023 11
8.73431 -4.61294 -0.0818532 11
9.94901 -5.25779 -0.0880513 11
11.3667 -5.99239 -0.132166 12
12.7148 -6.69407 -0.157238 12
13.8331 -7.2929 -0.153599 9
15.6271 -8.19249 -0.275255 23
15.6875 -8.27341 -0.192044 42
15.666 -8.23555 -0.0784526 32
15.6636 -8.23211 0.018797 49
15.6679 -8.20624 0.0816187 44
15.6838 -8.20039 0.142496 49
15.6525 -8.2422 0.206653 43
15.6741 -8.23586 0.267028 46
15.6953 -8.21881 0.327792 42
15.7504 -8.2334 0.38785 37
15.6695 -8.24938 0.453766 29
15.9241 -8.36544 0.492122 5
17.7779 -9.28394 0.387527 4
17.8589 -9.33426 0.450641 4
17.8925 -9.3894 0.517828 4
nan nan nan nan
17.8501 -9.31964 0.663234 3
18.2592 -9.53747 0.704507 1
18.2679 -9.58434 0.775521 10
nan nan nan nan
nan nan nan nan
21.6609 -11.3025 0.718778 24
21.661 -11.3824 0.760909 8
21.8507 -11.4119 0.793582 4
21.9642 -11.5227 0.830309 1
nan nan nan nan
22.4515 -11.764 0.892898 3
nan nan nan nan
nan nan nan nan
nan nan nan nan
22.5531 -11.8437 1.06568 6
nan nan nan nan
nan nan nan nan
39.2718 -20.5832 0.602418 31
34.1152 -17.8632 0.853615 38
39.2639 -20.6084 0.757583 41
39.3344 -20.6076 0.832723 41
39.3162 -20.5602 0.910537 40
39.2977 -20.5564 0.988481 40
39.3359 -20.5299 1.06465 40
34.379 -18.1023 1.25181 9
39.3699 -20.5254 1.21863 39
39.3218 -20.6636 1.29845 38
39.2899 -20.6088 1.38382 35
nan nan nan nan
nan nan nan nan
39.3339 -20.5623 1.60696 35
39.3277 -20.5213 1.68393 41
39.2764 -20.6848 1.76429 39
39.3856 -20.5205 1.83798 37
39.3107 -20.6534 1.9183 38
39.391 -20.5002 1.99252 40
39.3471 -20.6056 2.07212 37
39.3608 -20.5574 2.14864 37
39.3545 -20.5688 2.22633 38
39.3819 -20.5366 2.30309 36
39.3119 -20.6904 2.38379 33
39.4068 -20.5186 2.45766 36
39.3443 -20.658 2.53812 35
39.4236 -20.5041 2.6124 39
39.3924 -20.5696 2.76885 36
39.4036 -20.5523 2.92359 38
39.4302 -20.5264 3.07832 35
39.414 -20.4948 3.23231 39
39.4041 -20.6895 3.7819 40
39.5448 -20.6302 4.56341 17
39.5589 -20.6121 5.77535 10
39.45 -20.5095 6.93691 42
41.7449 -21.5841 9.25179 11
39.5276 -20.622 10.888 41
41.6625 -21.4499 14.3521 26
3.23682 -1.74603 0.288134 5
4.91276 -2.62196 0.0113001 13
nan nan nan nan
7.463 -3.95625 -0.0597336 9
8.71746 -4.64501 -0.0811765 11
9.93071 -5.29257 -0.087317 14
11.3501 -6.03443 -0.132149 13
12.6959 -6.74081 -0.157045 12
13.8777 -7.37843 -0.163526 6
15.6249 -8.26099 -0.277951 23
15.7025 -8.35151 -0.197037 42
15.6753 -8.31392 -0.0825033 28
15.6788 -8.31008 0.0143722 47
15.6744 -8.27953 0.0784465 41
15.6904 -8.27371 0.139463 43
15.6589 -8.31551 0.203761 39
15.6673 -8.30224 0.265741 39
15.6798 -8.28059 0.327533 33
15.7173 -8.28606 0.389461 37
15.6406 -8.30408 0.454921 34
15.9345 -8.44202 0.489525 8
17.8866 -9.42032 0.375979 4
nan nan nan nan
17.9655 -9.50782 0.510343 4
17.986 -9.52278 0.579861 3
17.9455 -9.44935 0.654915 3
18.2258 -9.60119 0.705849 3
18.2124 -9.63642 0.778351 10
21.6142 -11.4461 0.634711 25
21.5587 -11.4387 0.680688 21
21.5904 -11.3618 0.722207 24
21.6256 -11.4603 0.762252 8
21.802 -11.4835 0.795679 4
21.9484 -11.6172 0.83059 3
22.196 -11.7411 0.861257 1
22.428 -11.8516 0.893676 3
nan nan nan nan
22.3132 -11.8314 0.991819 1
nan nan nan nan
22.5205 -11.9271 1.06697 6
22.7795 -11.9961 1.10117 6
22.9224 -12.1249 1.14077 4
33.933 -17.9367 0.793204 33
33.6859 -17.7885 0.868488 38
33.9925 -17.9933 0.925398 36
34.0343 -17.9824 0.991142 35
34.0848 -17.976 1.05675 30
34.0885 -17.9829 1.12392 36
34.1949 -17.9983 1.18836 31
33.9549 -18.0382 1.26227 39
30.51 -16.0427 1.39635 17
34.6111 -18.3428 1.3843 14
30.4542 -16.1101 1.52446 17
30.4598 -16.0904 1.57822 35
30.418 -16.0318 1.63838 35
30.5537 -16.1077 1.69704 25
39.3709 -20.719 1.6859 42
30.6077 -16.264 1.81897 32
39.3934 -20.6997 1.84055 31
30.645 -16.2377 1.93906 30
nan nan nan nan
30.5784 -16.1496 2.05897 3
39.3773 -20.7413 2.15187 37
39.3709 -20.7526 2.22974 32
39.3941 -20.7181 2.30663 37
30.7216 -16.3142 2.30342 29
30.7871 -16.1679 2.36098 23
39.378 -20.8513 2.54248 40
39.4315 -20.6834 2.61654 38
39.3955 -20.7465 2.77322 42
39.4112 -20.7315 2.92836 38
39.4423 -20.708 3.08352 40
39.4307 -20.6786 3.23798 39
39.4022 -20.8642 3.78801 35
39.5475 -20.8075 4.5712 11
41.3476 -21.7279 5.95636 9
39.4659 -20.693 6.95086 41
41.4367 -21.6083 9.2144 10
39.5374 -20.8029 10.9094 36
41.5738 -21.5879 14.3513 29
3.24271 -1.76388 0.281986 5
4.89954 -2.63694 0.0133566 12
nan nan nan nan
7.44497 -3.98007 -0.057992 4
8.697 -4.67318 -0.0794959 10
9.91228 -5.32728 -0.0865824 11
11.3291 -6.07409 -0.13131 12
12.6767 -6.7875 -0.156852 12
13.9262 -7.4667 -0.174126 6
15.6267 -8.3319 -0.281284 14
15.7083 -8.42512 -0.200793 42
15.6813 -8.3874 -0.0860207 42
15.6848 -8.38357 0.01107 42
15.685 -8.3553 0.0747401 41
15.701 -8.34952 0.135913 42
15.6649 -8.38896 0.200875 40
15.6778 -8.37805 0.262505 39
15.6904 -8.35639 0.324452 41
15.7279 -8.36198 0.386546 39
15.6468 -8.37748 0.452589 31
15.9314 -8.51173 0.48819 9
17.9857 -9.5529 0.365255 4
18.062 -9.60161 0.429847 4
18.0466 -9.63155 0.502142 5
18.1067 -9.66777 0.568974 3
18.0755 -9.59857 0.643962 3
18.1923 -9.6648 0.707193 3
18.0994 -9.65769 0.785038 10
21.5698 -11.5192 0.636587 25
21.5231 -11.5162 0.68201 21
21.5684 -11.4465 0.72275 24
21.5768 -11.531 0.764355 23
21.7707 -11.5642 0.796797 4
21.921 -11.7008 0.831503 3
nan nan nan nan
22.078 -11.7655 0.910617 3
nan nan nan nan
22.2718 -11.9093 0.993467 3
nan nan nan nan
22.4743 -12.0033 1.06882 8
22.7111 -12.0615 1.1039 6
22.8359 -12.1813 1.14413 4
33.7115 -17.9705 0.801371 30
33.6104 -17.8989 0.871419 37
33.6077 -17.9401 0.938113 39
33.6538 -17.9319 1.0031 39
33.916 -18.0385 1.0622 36
33.9373 -18.0549 1.12871 36
34.0171 -18.0566 1.19361 36
33.8112 -18.1059 1.26648 38
30.4539 -16.1491 1.39859 13
nan nan nan nan
30.4331 -16.2352 1.52616 13
30.4212 -16.206 1.58022 29
30.3663 -16.1403 1.64057 36
30.2943 -16.1063 1.70131 31
39.4132 -20.9172 1.68788 23
30.5829 -16.3742 1.82085 13
nan nan nan nan
30.5793 -16.3398 1.94134 29
30.444 -16.1151 1.99929 38
30.4822 -16.2351 2.06115 3
30.3808 -16.1378 2.1202 39
nan nan nan nan
nan nan nan nan
30.679 -16.4153 2.30555 33
39.4349 -20.8843 2.46548 38
39.3711 -21.0239 2.5463 35
39.4518 -20.8699 2.6209 39
39.42 -20.9355 2.77804 38
39.4225 -20.9134 2.93325 39
39.4493 -20.8876 3.08862 40
39.4422 -20.8605 3.24353 39
39.4084 -21.0439 3.79453 41
39.5627 -20.9921 4.57987 10
41.0469 -21.7529 5.93786 9
39.4811 -20.8769 6.96481 36
41.1289 -21.6306 9.17698 11
39.568 -20.9955 10.9358 39
41.2406 -21.5978 14.2778 20
3.23266 -1.77308 0.284356 5
4.89086 -2.65325 0.013702 8
nan nan nan nan
nan nan nan nan
8.68586 -4.7044 -0.0799184 17
9.89374 -5.36193 -0.0858471 17
11.3123 -6.11603 -0.131291 13
12.6618 -6.83649 -0.1574 10
13.9699 -7.55305 -0.18403 5
15.6384 -8.40489 -0.28595 25
15.7182 -8.50124 -0.205157 41
15.6885 -8.45827 -0.0895905 30
15.6949 -8.45956 0.00721633 41
15.6924 -8.42615 0.0715222 42
15.7026 -8.4208 0.133415 42
15.6706 -8.46256 0.197995 40
15.6793 -8.44931 0.260251 39
15.6934 -8.42492 0.322261 41
15.7251 -8.43101 0.384995 37
15.6614 -8.45576 0.449392 36
15.9543 -8.5957 0.484351 11
16.4954 -8.83143 0.499684 6
16.7544 -8.98135 0.542438 32
18.1403 -9.76305 0.49286 3
18.1959 -9.79717 0.560551 3
18.1712 -9.72679 0.635618 3
nan nan nan nan
nan nan nan nan
21.5339 -11.5968 0.637905 25
21.5048 -11.6032 0.682253 34
21.5127 -11.5086 0.725311 40
21.532 -11.6039 0.766206 23
21.7258 -11.6378 0.79865 4
21.8997 -11.7829 0.832103 3
nan nan nan nan
22.0016 -11.8236 0.913994 1
nan nan nan nan
22.2301 -11.987 0.995117 3
nan nan nan nan
22.428 -12.0793 1.07066 6
22.6513 -12.1313 1.10627 6
22.7954 -12.257 1.14573 4
33.5254 -18.0218 0.80826 14
33.4906 -17.9854 0.875833 37
33.5274 -18.0478 0.941159 37
33.5734 -18.0398 1.00611 38
33.6169 -18.0152 1.07118 37
33.6759 -18.0669 1.13632 39
33.8085 -18.0974 1.19958 38
33.6894 -18.1847 1.2702 41
33.8582 -18.1057 1.33225 37
30.4157 -16.3925 1.4618 23
30.2354 -16.2655 1.53061 32
30.2411 -16.2458 1.58418 36
30.2449 -16.1978 1.64343 33
30.1806 -16.1812 1.70412 35
30.2726 -16.2009 1.76272 38
30.5593 -16.4921 1.82282 36
30.5736 -16.3393 1.88094 33
30.4869 -16.4275 1.94367 34
30.4008 -16.2283 2.00154 32
30.3681 -16.3106 2.06329 1
30.3211 -16.2284 2.12218 39
30.3194 -16.2522 2.18262 42
30.4664 -16.2944 2.24305 36
30.6376 -16.5241 2.30784 31
39.4676 -21.0783 2.46964 25
39.3987 -21.2157 2.55062 36
31.2799 -16.6871 2.49596 23
31.3231 -16.7613 2.62175 14
39.4461 -21.1027 2.93846 41
39.4731 -21.0769 3.09422 36
39.4485 -21.0403 3.24895 39
39.4226 -21.2286 3.80146 34
39.5815 -21.1794 4.58883 11
40.7771 -21.7925 5.9223 10
39.5042 -21.0658 6.97989 35
40.8171 -21.6487 9.13877 11
39.5805 -21.1794 10.9584 33
40.9122 -21.6079 14.2055 14
3.22258 -1.78224 0.286726 5
3.32583 -1.81863 0.652096 3
nan nan nan nan
2.38379 -1.29284 1.34702 66
8.6789 -4.73794 -0.0813746 11
9.87507 -5.39652 -0.0851114 12
11.291 -6.15556 -0.130451 11
12.6336 -6.87837 -0.155716 13
13.9783 -7.62082 -0.188458 4
15.6265 -8.46896 -0.287351 23
15.7147 -8.5704 -0.207673 43
15.6866 -8.52455 -0.0919869 42
15.7091 -8.53809 0.00281227 39
15.7067 -8.50462 0.0672889 43
15.7038 -8.4922 0.130922 41
15.6804 -8.53868 0.194616 43
15.6847 -8.52306 0.257515 42
15.7034 -8.50104 0.319193 42
15.7263 -8.50249 0.382996 41
15.6843 -8.53901 0.445333 54
15.9199 -8.64902 0.485953 12
16.4514 -8.8819 0.502109 3
18.2753 -9.87936 0.407986 3
18.2816 -9.92149 0.479575 4
18.3282 -9.95111 0.548664 3
18.3216 -9.88976 0.623056 3
nan nan nan nan
21.5591 -11.6973 0.549636 10
21.489 -11.6695 0.639781 51
21.4818 -11.6878 0.682771 38
21.4813 -11.5884 0.726382 40
21.4783 -11.6719 0.768561 35
21.6807 -11.7113 0.800504 4
nan nan nan nan
nan nan nan nan
21.9471 -11.8932 0.916279 1
nan nan nan nan
22.1882 -12.0645 0.996767 3
22.327 -12.0422 1.03057 3
22.3901 -12.1599 1.07215 5
22.6045 -12.2079 1.10813 6
22.7591 -12.3349 1.14717 5
33.3789 -18.0935 0.813724 20
33.4101 -18.0927 0.878908 30
33.4071 -18.1338 0.945456 37
33.4444 -18.1212 1.01056 32
33.4627 -18.0907 1.07623 37
33.5116 -18.1296 1.14142 39
33.6704 -18.175 1.20386 40
30.4364 -16.5598 1.34196 25
30.5253 -16.461 1.39944 29
30.332 -16.4843 1.46453 39
30.24 -16.4043 1.5319 33
30.2414 -16.3822 1.58563 30
30.2558 -16.3466 1.64495 28
30.4187 -16.4458 1.70345 0
30.5459 -16.4846 1.76236 12
30.5879 -16.6388 1.82449 35
30.5429 -16.4601 1.8831 40
30.4337 -16.5361 1.94592 37
30.3396 -16.332 2.00379 41
30.289 -16.4046 2.0655 1
30.2879 -16.3537 2.12465 36
30.2229 -16.3366 2.18462 25
30.4314 -16.4125 2.24548 36
30.3454 -16.4966 2.30761 31
30.8494 -16.6149 2.37057 36
30.9147 -16.787 2.43565 11
31.1202 -16.7417 2.49666 13
31.0503 -16.7619 2.61999 17
39.4646 -21.2901 2.94359 42
39.4873 -21.2618 3.09959 41
39.476 -21.2322 3.25508 42
39.4272 -21.4089 3.80801 36
39.5599 -21.3457 4.59522 32
39.5998 -21.3413 5.81914 31
39.5045 -21.2433 6.99222 41
39.6428 -21.2035 8.94923 39
39.5879 -21.3612 10.9799 33
39.7009 -21.1455 13.869 38
3.20458 -1.78693 0.293353 5
nan nan nan nan
2.2711 -1.25487 1.25739 66
2.36227 -1.29184 1.35196 41
8.66325 -4.76678 -0.08076 10
9.85628 -5.43104 -0.0843751 12
11.2652 -6.19264 -0.128789 14
12.6096 -6.92251 -0.154775 11
14.0038 -7.69828 -0.195611 6
15.6347 -8.54768 -0.291889 14
15.7109 -8.63963 -0.210183 43
15.6889 -8.59329 -0.0949621 42
15.6924 -8.60011 0.00231171 41
15.6886 -8.56935 0.0668969 42
15.7047 -8.5637 0.128435 44
15.6768 -8.6078 0.192757 42
15.6812 -8.59217 0.255759 41
15.6984 -8.57292 0.317599 38
15.7184 -8.56932 0.381906 40
15.6938 -8.61533 0.442586 38
15.9116 -8.71656 0.485049 23
16.712 -9.10194 0.476562 10
17.0285 -9.28199 0.515432 6
18.3606 -10.0475 0.471433 4
18.4335 -10.0917 0.538891 3
18.443 -10.0428 0.612576 3
21.4511 -11.6865 0.470883 83
21.5139 -11.7701 0.551536 83
21.4438 -11.7421 0.641659 46
21.4366 -11.7603 0.68464 43
21.4212 -11.6575 0.729101 48
21.4375 -11.7469 0.77016 32
21.6442 -11.7893 0.801871 4
21.6591 -11.8394 0.84388 3
21.6971 -11.8679 0.884999 3
21.9011 -11.9674 0.918129 3
21.9941 -12.0409 0.957209 4
22.146 -12.1419 0.998419 3
22.2608 -12.112 1.03327 3
22.352 -12.2405 1.07363 6
22.5179 -12.2628 1.11154 17
22.74 -12.4223 1.14795 4
33.298 -18.2004 0.816831 17
33.3292 -18.1997 0.881983 35
33.3042 -18.2287 0.94919 32
33.3327 -18.2115 1.01447 34
33.3217 -18.1726 1.08091 37
33.3823 -18.2106 1.1456 26
33.5981 -18.2876 1.20657 20
33.4191 -18.3261 1.27819 25
30.4941 -16.5817 1.40119 14
30.3927 -16.6549 1.46469 39
30.1826 -16.5098 1.53414 38
30.3025 -16.5524 1.58625 36
30.4678 -16.6057 1.6441 0
30.5147 -16.6357 1.70421 17
30.8351 -16.7799 1.76192 28
30.8176 -16.8963 1.82501 30
30.8103 -16.7433 1.88411 29
30.3583 -16.6327 1.94822 37
30.2868 -16.4401 2.00604 38
30.1262 -16.4527 2.06752 1
30.1794 -16.4383 2.12681 37
30.1349 -16.4252 2.18668 34
30.1455 -16.3943 2.24589 34
30.0582 -16.4698 2.3074 41
30.1321 -16.3646 2.36493 37
nan nan nan nan
30.7628 -16.6881 2.49419 34
30.8745 -16.8134 2.62012 28
39.4646 -21.4683 2.94831 42
39.5006 -21.4472 3.10497 41
39.4718 -21.4079 3.26025 42
nan nan nan nan
39.485 -21.4836 4.59816 41
29.9034 -16.2504 4.89156 36
39.5129 -21.4259 7.00567 38
39.59 -21.3531 8.95599 40
39.6246 -21.5598 11.0083 33
39.7199 -21.3338 13.9001 40
3.19841 -1.79818 0.293594 5
nan nan nan nan
2.26675 -1.26282 1.25756 75
2.35778 -1.3001 1.35214 53
8.64667 -4.79707 -0.0801129 8
9.83738 -5.46549 -0.0836384 17
11.235 -6.22723 -0.126308 12
12.5855 -6.96657 -0.153834 13
13.9553 -7.73519 -0.191153 8
15.657 -8.63103 -0.298398 23
15.7111 -8.71136 -0.213303 42
15.698 -8.66967 -0.0990405 30
15.6971 -8.67414 -0.000967503 41
15.6935 -8.64332 0.0637543 43
15.7097 -8.63771 0.125431 42
15.6816 -8.6818 0.189894 42
15.6904 -8.66858 0.252548 43
15.7078 -8.64934 0.314543 43
15.7583 -8.66259 0.375855 43
15.6899 -8.68458 0.44115 40
15.8724 -8.76728 0.487071 20
16.6977 -9.16987 0.476207 13
17.0266 -9.35824 0.514022 10
nan nan nan nan
nan nan nan nan
16.4707 -9.04328 0.760352 4
21.5239 -11.8239 0.464342 113
21.4771 -11.8476 0.552845 97
21.4334 -11.8338 0.641312 41
21.4086 -11.8424 0.685432 30
21.3761 -11.7299 0.730957 49
21.4008 -11.8241 0.771508 29
21.603 -11.8648 0.803483 4
21.6264 -11.9198 0.845026 3
21.6338 -11.9315 0.887745 3
21.8593 -12.0438 0.919761 3
21.9388 -12.1104 0.959474 4
22.0992 -12.2168 1.00027 3
22.1966 -12.1776 1.03588 3
22.3092 -12.3184 1.0753 6
22.4969 -12.3534 1.11235 8
22.7579 -12.5354 1.14734 4
33.2212 -18.3093 0.819782 28
33.2087 -18.2846 0.886382 31
33.2142 -18.3304 0.952505 28
33.234 -18.3084 1.018 35
33.3019 -18.3129 1.08218 37
33.288 -18.3102 1.14888 39
33.4201 -18.3423 1.21177 33
30.5038 -16.8735 1.34251 20
30.5018 -16.7241 1.40216 35
30.4482 -16.8238 1.46494 23
30.4269 -16.7817 1.53172 14
30.4373 -16.7642 1.58587 28
30.5193 -16.7722 1.64509 0
30.4828 -16.7565 1.70623 25
30.6887 -16.8393 1.76489 34
30.6504 -16.9511 1.82802 13
30.7517 -16.8507 1.8864 33
30.3614 -16.7724 1.95038 37
30.2424 -16.5529 2.00829 35
30.1168 -16.5843 2.06988 1
30.1306 -16.5483 2.1291 34
30.0906 -16.5375 2.18901 32
30.0925 -16.5018 2.24817 29
30.0326 -16.5992 2.31011 36
30.0836 -16.4744 2.36728 38
30.0395 -16.5843 2.42948 39
30.5113 -16.6897 2.49337 36
29.7858 -16.3555 2.60169 25
39.4859 -21.6587 2.95357 42
39.5088 -21.6304 3.11025 40
39.4933 -21.5983 3.26628 32
28.8102 -15.9057 3.33085 41
29.3092 -16.0796 3.93459 11
29.8463 -16.3545 4.89379 36
39.5335 -21.6159 7.02079 41
39.6277 -21.5523 8.97881 36
39.6347 -21.7447 11.0308 40
39.7296 -21.5178 13.9286 41
3.1922 -1.8094 0.293834 5
nan nan nan nan
2.26236 -1.27075 1.25773 81
2.34478 -1.30362 1.35469 49
8.63425 -4.82969 -0.0804992 6
9.8193 -5.49816 -0.0829382 11
11.2219 -6.27131 -0.127106 14
12.5612 -7.01054 -0.152892 11
13.9024 -7.76944 -0.186014 9
15.6572 -8.70258 -0.301702 23
15.7241 -8.79045 -0.218256 41
15.7068 -8.74623 -0.103112 40
15.719 -8.75797 -0.00646424 41
15.7198 -8.7295 0.057924 43
15.7187 -8.71428 0.121912 42
15.6875 -8.75321 0.186979 42
15.6949 -8.74273 0.24983 43
15.7124 -8.72351 0.311963 43
15.7542 -8.73209 0.374326 45
15.6959 -8.75603 0.438791 38
15.8418 -8.82269 0.488258 17
16.5175 -9.14605 0.491046 30
16.5361 -9.16385 0.555439 8
16.4816 -9.16969 0.625567 11
16.4799 -9.17239 0.691705 11
16.4391 -9.10076 0.761582 14
21.4957 -11.9062 0.465011 227
21.5099 -11.9638 0.549433 173
21.4269 -11.9281 0.640694 23
21.3977 -11.9341 0.685152 37
21.3569 -11.8165 0.73125 40
21.3682 -11.9036 0.772605 25
21.5659 -11.9426 0.804853 4
21.7114 -12.0656 0.839851 3
21.723 -12.0798 0.8826 3
22.1141 -12.285 0.906657 4
nan nan nan nan
22.1001 -12.3182 0.999941 3
22.1584 -12.2575 1.03735 3
22.2748 -12.4011 1.0766 8
22.4756 -12.444 1.11317 6
22.7708 -12.6463 1.14691 3
33.096 -18.3912 0.824444 28
33.1229 -18.3883 0.889598 33
33.1151 -18.4268 0.956094 25
33.135 -18.4049 1.02152 32
33.1416 -18.3757 1.08732 36
33.1277 -18.3729 1.15383 38
33.1504 -18.345 1.21913 37
33.0296 -18.4211 1.28888 40
33.1735 -18.3396 1.35073 25
30.4199 -16.947 1.46668 32
30.3725 -16.8902 1.53392 10
30.4005 -16.8825 1.58785 21
30.3556 -16.8204 1.64859 31
30.4547 -16.8798 1.70821 13
30.5117 -16.881 1.76809 13
30.5824 -17.0531 1.83036 20
30.7409 -16.9845 1.88852 30
30.3245 -16.8904 1.95261 36
30.1932 -16.6632 2.01055 35
30.05 -16.6844 2.07211 3
30.0902 -16.663 2.13142 35
30.0589 -16.6569 2.19142 33
30.0653 -16.6237 2.25067 23
29.9832 -16.7088 2.31245 38
30.0346 -16.5841 2.36963 35
29.9509 -16.672 2.43129 41
29.9012 -16.4919 2.48671 37
29.6848 -16.4351 2.60303 35
29.7823 -16.4706 2.72328 23
39.5249 -21.8189 3.11578 33
29.605 -16.3251 2.95367 34
28.9771 -16.13 3.34332 28
29.2485 -16.1793 3.93649 41
29.7889 -16.4585 4.89601 38
39.5359 -21.7967 7.03371 34
39.6386 -21.7376 8.99706 35
39.6396 -21.9276 11.0524 37
39.7555 -21.7114 13.9622 37
3.17024 -1.81162 0.302586 4
nan nan nan nan
2.26213 -1.28104 1.25651 79
2.32755 -1.30468 1.35843 57
8.62171 -4.86228 -0.0808842 3
9.79684 -5.52836 -0.0813236 14
11.2044 -6.31294 -0.127083 11
12.5325 -7.052 -0.151207 10
13.871 -7.81558 -0.184289 9
15.6658 -8.77909 -0.306278 17
15.7366 -8.86974 -0.223202 40
15.7153 -8.82296 -0.107177 41
15.7274 -8.83477 -0.0102859 42
15.7241 -8.80382 0.0547947 42
15.7273 -8.791 0.1184 44
15.6932 -8.82474 0.184069 41
15.6948 -8.81458 0.247604 41
15.7167 -8.79782 0.309389 36
15.7498 -8.80167 0.372801 40
15.7016 -8.8276 0.436438 39
15.8066 -8.87555 0.489863 17
16.4855 -9.20371 0.492282 31
16.5085 -9.224 0.556296 30
16.4469 -9.2219 0.627106 30
16.4218 -9.21526 0.695023 14
16.4117 -9.16056 0.762483 12
21.4585 -11.9837 0.466308 192
21.4876 -12.0448 0.549786 155
21.3896 -12.0053 0.642023 35
21.3647 -12.0137 0.686221 42
21.3069 -11.8862 0.733369 39
21.344 -11.9879 0.773203 20
21.5241 -12.0179 0.806467 4
21.6648 -12.1389 0.841712 3
21.818 -12.2275 0.877169 3
22.1453 -12.4036 0.904635 4
nan nan nan nan
22.105 -12.4222 0.999421 3
nan nan nan nan
22.2271 -12.4764 1.07845 8
22.4713 -12.5443 1.11329 6
33.1354 -18.5522 0.756916 6
33.0088 -18.4862 0.827733 29
33.0498 -18.499 0.892373 23
33.0027 -18.5154 0.960093 30
33.0139 -18.4887 1.02568 30
33.0294 -18.4645 1.09113 30
33.0111 -18.4592 1.15765 33
33.0295 -18.429 1.22295 31
32.9303 -18.5167 1.29211 35
33.0557 -18.4179 1.3542 31
nan nan nan nan
30.3222 -17.001 1.53606 38
30.2454 -16.9348 1.59143 33
30.2793 -16.9165 1.65107 34
30.304 -16.9348 1.71137 32
nan nan nan nan
nan nan nan nan
30.4048 -16.9307 1.89172 37
30.2566 -16.9912 1.9549 32
30.1917 -16.8001 2.01283 0
29.9828 -16.7843 2.07434 1
29.9882 -16.7436 2.13348 38
29.9962 -16.7593 2.19364 33
30.0115 -16.7309 2.25296 33
29.9596 -16.8329 2.31506 37
30.0363 -16.7152 2.37247 35
29.6004 -16.6125 2.42932 37
29.6731 -16.5014 2.48617 34
29.7145 -16.5873 2.60703 28
29.8032 -16.6182 2.72742 10
29.4144 -16.3658 2.83446 11
29.242 -16.2583 2.94601 32
28.9162 -16.2286 3.34529 40
29.2048 -16.2885 3.93955 38
29.8182 -16.6107 4.90673 35
nan nan nan nan
39.6524 -21.9165 9.01518 38
39.6737 -22.1276 11.0809 36
39.7593 -21.8939 13.9894 40
3.15615 -1.81823 0.307081 4
nan nan nan nan
2.26185 -1.29135 1.25528 76
2.31034 -1.30563 1.36217 95
2.30921 -1.31652 1.44894 12
9.77566 -5.56602 -0.080512 12
11.1867 -6.35453 -0.127059 13
12.5036 -7.09335 -0.149522 13
13.8825 -7.88605 -0.189379 10
15.6913 -8.86553 -0.313403 31
15.7445 -8.94677 -0.227529 41
15.7262 -8.90504 -0.111758 33
15.7225 -8.90438 -0.012435 41
15.7193 -8.87339 0.0527476 43
15.7356 -8.8679 0.114894 42
15.701 -8.9123 0.180396 41
15.703 -8.89144 0.244411 47
15.725 -8.87472 0.306352 37
15.7495 -8.87377 0.370831 41
15.7094 -8.91521 0.43346 40
15.7756 -8.93072 0.491051 17
16.3665 -9.21235 0.501502 31
16.4719 -9.27917 0.557917 30
16.5199 -9.34641 0.619362 25
16.3809 -9.26766 0.696951 23
16.3883 -9.22273 0.763055 14
21.434 -12.0683 0.46667 62
nan nan nan nan
21.3259 -12.0676 0.645016 38
21.3227 -12.0882 0.687827 30
21.3045 -11.9826 0.732629 40
21.3238 -12.0747 0.773554 17
21.5126 -12.1101 0.806386 4
21.6464 -12.233 0.84202 1
21.9362 -12.4046 0.870432 4
21.867 -12.3482 0.917967 3
nan nan nan nan
nan nan nan nan
nan nan nan nan
22.1922 -12.5588 1.07976 9
22.4623 -12.6423 1.1136 5
33.0542 -18.6662 0.760021 11
32.9985 -18.6473 0.82829 28
33.2767 -18.7788 0.885051 23
32.8553 -18.5838 0.965186 29
32.9231 -18.5891 1.02893 35
32.9212 -18.5551 1.09481 30
32.916 -18.5571 1.16091 36
32.8953 -18.505 1.22707 36
32.7883 -18.5954 1.2963 33
32.8835 -18.4802 1.35885 37
nan nan nan nan
30.2714 -17.1117 1.53821 32
30.3037 -17.1066 1.59211 31
30.281 -17.0565 1.65263 25
nan nan nan nan
30.2232 -16.9979 1.77395 30
33.027 -18.7345 1.82103 17
30.4298 -17.091 1.89381 36
30.4582 -17.2445 1.95678 33
33.194 -18.6227 2.01635 13
33.1767 -18.7247 2.08464 1
30.2825 -17.0468 2.1373 12
33.3527 -18.788 2.21797 28
30.0183 -16.8723 2.25576 35
29.9121 -16.9576 2.31773 38
29.9704 -16.8227 2.37478 38
29.577 -16.7354 2.43205 36
29.515 -16.5486 2.48674 37
29.6303 -16.6762 2.60872 29
29.8365 -16.7736 2.7319 36
29.3367 -16.4637 2.83628 36
28.7142 -16.0963 2.93293 30
28.8593 -16.3293 3.34746 39
29.1216 -16.3756 3.94 38
28.5002 -16.007 4.78582 9
nan nan nan nan
39.675 -22.1191 9.03667 38
39.6855 -22.316 11.1045 41
39.7624 -22.0766 14.0167 40
3.14987 -1.8293 0.30732 4
nan nan nan nan
2.26152 -1.30166 1.25405 72
2.31002 -1.31612 1.36116 55
2.2834 -1.31243 1.45428 39
9.75531 -5.6019 -0.0797369 17
11.156 -6.38872 -0.124577 11
12.4746 -7.13458 -0.147837 12
13.9453 -7.98624 -0.202638 10
15.6776 -8.93015 -0.314773 32
15.7478 -9.0215 -0.231237 41
15.7253 -8.97719 -0.114645 32
15.726 -8.97899 -0.0156891 40
15.7273 -8.95042 0.0490919 45
15.7436 -8.94496 0.111394 42
15.7072 -8.99209 0.177114 41
15.7108 -8.96847 0.241225 43
15.7329 -8.95177 0.303322 36
15.7488 -8.94597 0.368866 42
15.72 -8.99752 0.430372 41
15.7444 -8.98579 0.492241 20
16.3257 -9.26455 0.503531 29
16.4308 -9.33173 0.559919 29
16.4857 -9.40694 0.620669 33
16.3355 -9.31741 0.699224 32
16.3474 -9.275 0.764946 25
21.3918 -12.1431 0.468283 38
nan nan nan nan
nan nan nan nan
21.3238 -12.1874 0.686757 41
21.267 -12.0594 0.733972 39
21.3033 -12.1615 0.773909 17
21.4833 -12.1926 0.807279 4
21.5776 -12.2937 0.84505 1
nan nan nan nan
21.8499 -12.4394 0.91832 1
nan nan nan nan
nan nan nan nan
nan nan nan nan
nan nan nan nan
nan nan nan nan
32.8413 -18.6974 0.768067 33
32.9344 -18.7706 0.830746 28
33.2892 -18.9394 0.884929 23
32.9727 -18.8023 0.961901 20
32.8625 -18.7065 1.03128 31
32.7868 -18.6304 1.09921 33
32.8164 -18.6522 1.16428 31
32.8305 -18.6197 1.22955 33
32.7754 -18.7395 1.29766 35
32.8547 -18.6228 1.36069 34
32.8199 -18.7369 1.42835 33
32.8655 -18.7297 1.49985 34
32.8857 -18.7159 1.55869 31
32.969 -18.7225 1.62326 29
32.9152 -18.6969 1.68996 28
30.1245 -17.0811 1.77652 23
32.9484 -18.8422 1.82359 41
33.0208 -18.7055 1.88689 12
30.4586 -17.3854 1.95899 25
30.6482 -17.3354 2.01764 23
30.1648 -17.1638 2.07961 1
30.2402 -17.1623 2.13966 29
30.348 -17.2349 2.20122 12
29.9548 -16.9745 2.25798 32
29.818 -17.0421 2.31961 41
29.9129 -16.9349 2.3772 29
nan nan nan nan
29.9053 -16.9048 2.49637 33
nan nan nan nan
30.6909 -17.3953 2.7566 28
29.2631 -16.5637 2.83822 36
28.6404 -16.1865 2.93452 33
28.0296 -15.9893 3.31347 35
29.0555 -16.4721 3.94161 37
28.3617 -16.0597 4.77989 9
28.6974 -16.214 5.68127 14
39.6795 -22.3124 9.05512 38
39.6837 -22.4975 11.1251 37
39.7899 -22.2737 14.0516 40
3.13575 -1.83578 0.311813 4
nan nan nan nan
2.25746 -1.30879 1.25421 66
2.29703 -1.31936 1.36371 73
2.28708 -1.32571 1.45239 96
9.74104 -5.63676 -0.0799482 11
11.138 -6.43018 -0.124551 14
12.4326 -7.16828 -0.143928 25
14.0032 -8.08449 -0.215202 10
15.6938 -9.01208 -0.320606 38
15.7624 -9.09581 -0.236282 41
15.7355 -9.05962 -0.119213 43
15.7377 -9.05869 -0.0200467 40
15.7305 -9.02513 0.0459801 43
15.7426 -9.01724 0.108942 41
15.7178 -9.06381 0.173661 41
15.714 -9.04318 0.238531 42
15.7319 -9.02404 0.301234 38
15.7521 -9.02076 0.366456 36
15.7349 -9.07179 0.427112 41
15.7303 -9.05069 0.491768 28
16.2847 -9.31658 0.50556 32
16.3723 -9.37421 0.563445 35
16.4588 -9.46409 0.621489 28
16.2943 -9.36945 0.701151 30
16.2717 -9.30727 0.769468 28
16.4555 -9.41616 0.821777 20
nan nan nan nan
21.2803 -12.2387 0.645744 29
21.2769 -12.2593 0.688636 29
21.2292 -12.136 0.735317 36
21.2651 -12.2284 0.775358 17
21.4623 -12.2799 0.807691 5
nan nan nan nan
nan nan nan nan
21.8541 -12.5429 0.9176 10
nan nan nan nan
21.9868 -12.6606 1.00382 10
nan nan nan nan
32.6092 -18.7421 0.64548 8
nan nan nan nan
32.5862 -18.7107 0.777683 33
32.7334 -18.8001 0.838048 30
32.7114 -18.7621 0.904632 34
32.8202 -18.8675 0.967129 29
32.7017 -18.7663 1.03659 33
32.7043 -18.7348 1.10216 32
32.7327 -18.7485 1.16718 32
32.7567 -18.7292 1.23223 34
32.6978 -18.8545 1.30044 33
32.7939 -18.7398 1.36308 37
32.7543 -18.8513 1.43083 30
32.7783 -18.8318 1.50266 38
32.8072 -18.8231 1.56135 25
32.8514 -18.8077 1.62635 29
32.8487 -18.8035 1.69236 12
30.234 -17.283 1.77753 13
32.8704 -18.9578 1.82625 13
32.977 -18.833 1.88931 31
32.9721 -18.9728 1.95778 25
33.085 -18.8663 2.02136 13
30.2522 -17.3535 2.08227 1
30.1063 -17.2255 2.1416 20
30.2777 -17.328 2.20331 29
29.891 -17.0765 2.2602 38
28.798 -16.5995 2.3117 25
nan nan nan nan
28.8223 -16.575 2.42712 29
29.1468 -16.6106 2.48699 35
29.0184 -16.5996 2.60294 36
30.7732 -17.5841 2.76246 17
nan nan nan nan
30.4814 -17.3676 2.99876 13
27.8437 -16.0123 3.30949 39
29.028 -16.5907 3.94583 33
28.2274 -16.114 4.77437 38
28.6318 -16.309 5.68232 34
39.687 -22.4992 9.07343 39
39.7066 -22.6938 11.1517 35
39.7997 -22.4618 14.0814 40
nan nan nan nan
nan nan nan nan
2.24855 -1.31466 1.25578 58
2.27984 -1.32007 1.36744 56
2.26133 -1.32139 1.45773 60
9.7224 -5.66911 -0.0792458 11
11.1199 -6.47158 -0.124525 11
12.3691 -7.18936 -0.136315 25
14.1078 -8.21066 -0.23524 10
15.6967 -9.08678 -0.324519 36
15.7506 -9.16609 -0.238083 41
15.7296 -9.12952 -0.121507 42
15.7319 -9.12861 -0.0221801 41
15.7291 -9.09748 0.0434114 43
15.7412 -9.08962 0.106494 41
15.7179 -9.13344 0.171278 41
15.7126 -9.11552 0.236328 42
15.7349 -9.0989 0.298684 39
15.7465 -9.09069 0.364952 37
15.7349 -9.14148 0.425217 40
15.7117 -9.11309 0.491713 34
16.3989 -9.4581 0.493254 32
nan nan nan nan
16.2677 -9.42618 0.636111 26
16.3004 -9.44883 0.699273 25
16.2565 -9.37403 0.769384 17
16.3967 -9.45862 0.824888 20
17.0998 -9.90616 0.842791 20
21.2504 -12.3204 0.646528 25
21.2642 -12.3511 0.688378 30
21.2127 -12.2251 0.735369 41
21.2504 -12.3238 0.775301 12
21.4194 -12.3548 0.809314 6
17.1583 -9.93998 1.08135 5
21.708 -12.5724 0.880458 9
32.672 -18.9028 0.378929 20
21.858 -12.6701 0.960875 10
32.5027 -18.8676 0.524891 23
22.0929 -12.7298 1.03903 8
32.5274 -18.854 0.648613 29
32.6391 -18.8249 0.709912 33
32.59 -18.8644 0.777546 34
32.6147 -18.876 0.842405 32
32.6242 -18.8637 0.907834 35
32.6634 -18.9294 0.972482 30
32.6144 -18.8679 1.0397 34
32.5651 -18.8064 1.10666 31
32.6411 -18.8476 1.17032 35
32.6739 -18.8335 1.23511 36
32.6275 -18.966 1.30302 34
32.7273 -18.846 1.36552 36
32.6884 -18.9655 1.43332 35
32.7081 -18.9436 1.50521 36
32.7284 -18.93 1.56401 39
32.7509 -18.9022 1.62923 39
32.7785 -18.9155 1.69489 36
30.1908 -17.3984 1.77969 11
32.8247 -19.0767 1.82853 36
32.9924 -18.9871 1.89141 17
32.9273 -19.1003 1.96025 32
29.8025 -17.1327 2.02179 23
30.1525 -17.4365 2.08446 3
30.02 -17.3154 2.14376 28
30.2257 -17.4385 2.20566 13
29.8226 -17.1757 2.26239 28
28.7773 -16.715 2.31415 32
28.7394 -16.5299 2.36813 35
28.7729 -16.6805 2.42943 26
28.9455 -16.63 2.4868 35
28.9603 -16.7007 2.60513 25
29.2 -16.8204 2.72723 17
29.1583 -16.7674 2.84277 32
29.6274 -17.0183 2.975 20
28.0728 -16.2747 3.32505 38
nan nan nan nan
28.2098 -16.2346 4.78033 30
28.5831 -16.4136 5.68559 36
39.7276 -22.6965 9.09698 38
39.7032 -22.8759 11.1723 34
39.8213 -22.6575 14.1151 35
nan nan nan nan
2.13216 -1.25432 1.12743 85
2.24375 -1.32292 1.25596 41
2.27106 -1.32559 1.3688 52
2.25251 -1.32682 1.45893 52
9.70789 -5.70388 -0.0794549 8
11.0973 -6.51044 -0.123679 14
12.3014 -7.20758 -0.127966 12
14.1988 -8.33013 -0.253215 10
15.7164 -9.1716 -0.330974 37
15.7512 -9.24395 -0.241714 40
15.7364 -9.20702 -0.12554 41
15.7344 -9.20362 -0.0254169 41
15.7317 -9.17243 0.0403113 42
15.7482 -9.16711 0.103013 43
15.7219 -9.20568 0.168398 42
15.7151 -9.19047 0.233645 43
15.7375 -9.17389 0.29614 39
15.7492 -9.1657 0.362553 36
15.7347 -9.21128 0.423326 41
15.7143 -9.18806 0.489587 30
16.409 -9.5404 0.490519 29
nan nan nan nan
16.2881 -9.51028 0.63293 31
16.2803 -9.51326 0.699475 31
16.2453 -9.44329 0.768976 17
17.1358 -9.96504 0.770508 31
17.0928 -9.97794 0.842266 20
21.272 -12.4324 0.644007 8
17.1236 -10.026 0.943827 10
21.2261 -12.3317 0.733616 20
16.9853 -9.93308 1.02127 5
21.4064 -12.4471 0.809251 10
17.1796 -10.0326 1.07964 6
nan nan nan nan
32.6361 -19.0344 0.379906 29
32.4937 -18.9867 0.452554 29
32.4454 -18.986 0.526968 34
32.5251 -18.8932 0.582954 29
32.4755 -18.9832 0.650488 32
32.5258 -18.9111 0.714271 29
32.4981 -18.963 0.780995 29
32.5088 -18.9589 0.846295 32
32.5193 -18.9548 0.911615 32
32.5109 -18.9929 0.977686 36
32.5397 -18.9766 1.04243 35
32.5641 -18.9577 1.10735 38
32.5848 -18.9747 1.17259 37
32.6296 -18.96 1.23708 38
32.5741 -19.0874 1.30522 32
32.6733 -18.9594 1.36771 38
32.6263 -19.082 1.43572 32
32.6418 -19.0577 1.50769 39
32.6751 -19.0517 1.56632 34
32.6632 -19.0039 1.63196 41
32.7565 -19.0632 1.69706 37
32.8535 -19.0862 1.76201 36
32.7795 -19.2038 1.83091 40
32.9163 -19.0889 1.89383 36
32.9079 -19.2428 1.9627 10
32.9525 -19.0968 2.02636 32
30.0569 -17.5215 2.08665 1
29.9724 -17.4276 2.1461 11
30.1702 -17.5542 2.20813 17
29.8316 -17.3198 2.26526 29
28.6282 -16.7622 2.31534 31
28.6887 -16.6276 2.37026 35
28.6454 -16.7405 2.43058 33
28.5888 -16.558 2.48396 31
28.7764 -16.7288 2.6047 25
28.9379 -16.8042 2.72437 38
29.1025 -16.8639 2.84487 31
29.5678 -17.1215 2.97725 14
28.0719 -16.4052 3.32984 38
28.3502 -16.4668 3.91239 36
28.1398 -16.3254 4.78119 25
28.5341 -16.5181 5.68887 35
39.7246 -22.8697 9.11287 39
39.7243 -23.0731 11.1989 36
39.842 -22.8535 14.1488 39
2.09986 -1.25875 0.869531 38
2.13186 -1.26419 1.12591 80
2.25979 -1.34306 1.24916 30
2.25809 -1.3286 1.37135 90
2.23971 -1.32932 1.46116 76
9.68903 -5.73612 -0.0787516 5
11.0747 -6.54922 -0.122833 12
12.2295 -7.2229 -0.118883 5
14.336 -8.47807 -0.278652 10
15.7186 -9.24661 -0.334873 37
15.766 -9.32676 -0.247231 40
15.7444 -9.28192 -0.129626 41
15.7408 -9.28127 -0.0292013 41
15.7383 -9.25004 0.0366806 41
15.7548 -9.24475 0.099539 41
15.7257 -9.27805 0.165523 41
15.7174 -9.26555 0.230968 40
15.7398 -9.24901 0.293602 40
15.7429 -9.23581 0.361059 38
15.7299 -9.27864 0.421873 39
15.695 -9.2505 0.48954 35
16.3799 -9.60019 0.491369 32
16.3938 -9.61595 0.556521 43
16.3984 -9.64772 0.622144 30
16.3159 -9.61058 0.695194 33
nan nan nan nan
17.0966 -10.0223 0.772121 23
17.1716 -10.1004 0.835887 20
16.9873 -10.008 0.917149 11
17.4197 -10.2812 0.924605 14
nan nan nan nan
16.9162 -9.97205 1.02456 5
nan nan nan nan
17.3185 -10.1908 1.07161 4
32.5615 -19.1462 0.316769 20
17.4282 -10.2472 1.13636 11
32.479 -19.1304 0.45256 23
32.4866 -19.1627 0.52454 31
32.4202 -18.984 0.587122 32
32.4349 -19.1117 0.651884 31
32.4683 -19.0296 0.716402 32
32.4696 -19.091 0.782048 37
32.476 -19.0844 0.847571 30
32.4746 -19.0809 0.913366 36
32.4746 -19.124 0.97921 39
32.4992 -19.1053 1.04414 35
32.5237 -19.0865 1.10911 37
32.54 -19.101 1.17452 36
32.5805 -19.0839 1.23916 36
32.5279 -19.2055 1.30721 36
32.6319 -19.0803 1.36964 37
32.5854 -19.211 1.43776 37
32.6053 -19.1893 1.50972 37
32.6343 -19.1808 1.56846 38
32.6829 -19.1684 1.63347 37
32.6812 -19.1723 1.69963 39
32.778 -19.1957 1.76457 35
32.7716 -19.3454 1.83299 38
32.8744 -19.2105 1.89613 38
32.8406 -19.3576 1.9652 33
30.0664 -17.5648 2.02661 13
30.5473 -17.9505 2.09053 3
30.2478 -17.7294 2.15002 37
30.1001 -17.6543 2.21036 28
nan nan nan nan
nan nan nan nan
28.6593 -16.7377 2.37266 10
28.5566 -16.8226 2.43231 29
28.5567 -16.6728 2.48657 37
28.5928 -16.7558 2.60425 40
28.8446 -16.8848 2.7257 33
29.0507 -16.9628 2.8471 35
29.3913 -17.1565 2.97563 33
28.1693 -16.5943 3.33933 13
28.2925 -16.5655 3.91454 36
28.16 -16.4686 4.791 37
28.4675 -16.6124 5.68992 38
39.7594 -23.0655 9.13568 40
39.7404 -23.2681 11.2245 34
39.8325 -23.033 14.1736 35
2.08777 -1.26144 0.873944 40
2.13152 -1.27408 1.12438 62
5.98852 -3.59309 -0.0159276 10
2.25347 -1.3365 1.37152 98
2.23088 -1.33465 1.46236 57
9.67228 -5.7742 -0.0788848 3
11.0518 -6.58792 -0.121986 11
12.1788 -7.25045 -0.113507 5
14.4894 -8.63722 -0.306781 10
15.729 -9.32681 -0.34004 38
15.776 -9.40724 -0.25213 42
15.759 -9.36479 -0.134807 43
15.7511 -9.36163 -0.0335324 42
15.7488 -9.33034 0.0325202 43
15.7653 -9.32509 0.0955526 41
15.7302 -9.35858 0.162274 41
15.7235 -9.3433 0.227813 42
15.7418 -9.32426 0.291069 39
15.7493 -9.31358 0.358223 40
15.7216 -9.35156 0.420544 41
15.7099 -9.33327 0.48618 34
16.3507 -9.6599 0.492221 30
16.3989 -9.69601 0.554354 27
16.4076 -9.73038 0.619773 32
16.3166 -9.68789 0.693681 32
16.6474 -9.83318 0.735745 23
16.9929 -10.0413 0.778386 30
17.1577 -10.173 0.835734 20
17.0725 -10.1387 0.910744 12
nan nan nan nan
17.0333 -10.0552 0.983094 11
16.1473 -9.59475 1.06841 3
17.2476 -10.1899 1.04014 5
17.2657 -10.241 1.07386 9
32.6708 -19.3642 0.310117 14
16.838 -9.97951 1.16531 5
16.7842 -9.96542 1.20197 9
32.5484 -19.3526 0.521152 25
32.4184 -19.1352 0.58677 29
32.4497 -19.2733 0.650957 33
32.4749 -19.1861 0.715976 31
32.463 -19.2399 0.78226 35
32.4737 -19.2359 0.847752 35
32.4938 -19.2451 0.912956 33
32.4765 -19.2781 0.979521 35
32.5098 -19.2645 1.04434 32
32.5387 -19.2482 1.10935 37
32.5463 -19.2577 1.17514 34
32.5826 -19.2382 1.24003 38
32.5295 -19.3598 1.30823 37
32.6254 -19.2296 1.37096 37
32.5741 -19.3579 1.43928 38
32.6026 -19.3412 1.51123 38
32.6188 -19.3252 1.57026 38
32.6589 -19.3078 1.63547 39
32.627 -19.2939 1.702 40
32.7367 -19.3253 1.76688 40
32.8114 -19.5236 1.83495 38
32.9149 -19.3886 1.8983 36
32.8717 -19.5308 1.96761 23
29.9791 -17.6544 2.02888 17
30.4156 -18.0162 2.09265 1
30.1685 -17.8246 2.15224 35
30.034 -17.7567 2.21263 32
30.2784 -17.863 2.27491 28
30.0992 -17.8995 2.33724 28
30.0355 -17.6821 2.39353 33
29.9422 -17.7797 2.4564 10
28.4725 -16.7571 2.4883 34
28.504 -16.8377 2.6058 14
28.5745 -16.8608 2.72258 14
29.043 -17.0945 2.85082 29
28.9478 -17.0334 2.96511 34
nan nan nan nan
28.1871 -16.6362 3.91349 36
28.2266 -16.6401 4.80552 37
nan nan nan nan
39.7721 -23.2587 9.15559 41
39.747 -23.4492 11.2471 34
39.8807 -23.2468 14.2163 35
2.08728 -1.27112 0.871979 40
2.13113 -1.28398 1.12285 54
5.98016 -3.61654 -0.0168622 6
2.2405 -1.33938 1.37406 61
2.21785 -1.33741 1.46459 51
2.24143 -1.35103 1.52442 14
11.03 -6.62461 -0.121182 11
12.1069 -7.26501 -0.104436 5
14.6631 -8.8103 -0.338278 11
15.7348 -9.40465 -0.344563 42
15.79 -9.49047 -0.257631 42
15.7646 -9.44279 -0.138819 43
15.7611 -9.44216 -0.0378561 42
15.7589 -9.41082 0.0283672 42
15.7712 -9.40306 0.0920916 41
15.7402 -9.43908 0.15847 41
15.7336 -9.42377 0.224182 43
15.752 -9.40474 0.28761 40
15.7552 -9.39152 0.355394 38
15.7359 -9.43461 0.417003 41
15.7072 -9.40603 0.484485 35
16.2998 -9.70676 0.495057 31
16.4549 -9.80686 0.54764 24
16.3779 -9.7902 0.620666 34
16.2785 -9.74227 0.695274 29
16.5787 -9.87085 0.739635 20
16.8078 -10.0112 0.790526 30
nan nan nan nan
16.3303 -9.77517 0.95738 10
nan nan nan nan
nan nan nan nan
nan nan nan nan
17.2034 -10.2449 1.04194 5
16.5353 -9.88619 1.11263 14
nan nan nan nan
16.5261 -9.86886 1.18043 10
32.5077 -19.4543 0.449731 14
16.4446 -9.85512 1.25456 6
32.3815 -19.2661 0.587932 28
16.7218 -10.0094 1.30658 6
32.4722 -19.3377 0.715903 33
16.6671 -9.959 1.37663 6
32.4022 -19.3466 0.850388 31
32.5115 -19.4014 0.91258 33
