# .PCD v0.7 - Point Cloud Data file format
VERSION 0.7
FIELDS x y z intensity
SIZE 4 4 4 4
TYPE F F F F
COUNT 1 1 1 1
WIDTH 1756
HEIGHT 1
VIEWPOINT 0 0 0 1 0 0 0
POINTS 1756
DATA ascii
nan nan nan nan
27.6354 -13.9301 0.800384 3
27.6482 -14.0311 0.853878 3
28.142 -14.1992 0.888379 6
27.8044 -14.0849 0.956208 3
27.7312 -14.0455 1.01322 6
27.7787 -14.055 1.06583 4
27.7798 -14.0898 1.12026 4
27.7988 -14.0666 1.17389 4
27.8574 -14.0756 1.2265 4
nan nan nan nan
27.9202 -14.0782 1.33369 1
39.213 -19.9529 1.14084 43
39.3354 -19.814 1.21344 37
39.2541 -19.9337 1.29326 37
39.2659 -19.9023 1.37718 40
39.2861 -19.8754 1.4456 39
39.3019 -19.8461 1.52178 41
39.2913 -19.8466 1.59876 40
39.3112 -19.8194 1.67488 40
39.2528 -19.9689 1.75456 37
39.3332 -19.8001 1.82792 39
39.2608 -19.9329 1.90755 35
39.3427 -19.7821 1.98115 39
39.2964 -19.885 2.06007 38
39.3092 -19.837 2.13595 40
39.3031 -19.8484 2.21298 38
39.33 -19.8161 2.28909 39
39.2618 -19.9606 2.36892 39
39.3456 -19.7935 2.44226 39
39.2812 -19.9304 2.52195 39
39.3577 -19.7768 2.59559 39
39.3232 -19.8399 2.75057 39
39.3342 -19.8226 2.90394 39
39.3603 -19.7967 3.0573 39
39.3482 -19.7678 3.21005 40
39.3241 -19.9524 3.75403 36
39.5387 -19.9214 4.53282 20
39.5222 -19.888 5.73291 30
39.3915 -19.7858 6.88295 36
42.751 -21.3537 9.36141 11
39.4456 -19.8843 10.7943 40
41.6963 -20.7369 14.2622 29
nan nan nan nan
2.41546 -1.24501 1.03673 53
2.53508 -1.30995 1.1804 49
2.56996 -1.31382 1.30288 43
2.59662 -1.33963 1.39086 34
9.99882 -5.15083 -0.0893333 10
2.68548 -1.38129 1.50494 23
12.7971 -6.56708 -0.162283 11
13.9204 -7.15663 -0.15866 13
15.5307 -7.93562 -0.252361 23
15.6715 -8.05624 -0.181336 40
15.6847 -8.03686 -0.0731192 43
15.6646 -8.02437 0.0259646 41
15.6641 -7.9963 0.0890033 43
15.6578 -7.97903 0.152156 45
15.6447 -8.02995 0.213845 29
15.6175 -7.99851 0.279241 57
15.727 -8.02666 0.330002 25
15.9509 -8.12664 0.372568 5
nan nan nan nan
17.5317 -8.97691 0.344474 4
17.4919 -8.90265 0.418272 4
17.5468 -8.93832 0.482181 4
17.5323 -8.96754 0.551791 4
17.5796 -8.99563 0.616983 3
17.5418 -8.92615 0.689643 3
17.7664 -9.04441 0.742507 4
nan nan nan nan
nan nan nan nan
18.076 -9.2736 0.897274 1
nan nan nan nan
nan nan nan nan
nan nan nan nan
22.1635 -11.3329 0.821191 4
18.119 -9.26362 1.07265 3
22.4309 -11.4554 0.894987 3
nan nan nan nan
22.7273 -11.6525 0.973833 3
27.5822 -14.0242 0.802589 3
nan nan nan nan
nan nan nan nan
39.3746 -20.1173 0.520495 8
27.7666 -14.1854 1.01222 4
39.375 -20.0945 0.674818 10
nan nan nan nan
nan nan nan nan
39.2397 -19.9998 0.909941 4
39.3235 -20.0483 0.984666 31
39.3213 -20.0012 1.06143 36
39.2544 -20.1467 1.14126 29
39.3329 -19.9852 1.21496 39
39.2689 -20.1139 1.29459 42
39.2719 -20.0779 1.37883 39
39.2843 -20.0556 1.4476 41
39.3037 -20.0195 1.52377 41
39.293 -20.0199 1.60089 39
39.3175 -19.995 1.67712 39
39.2586 -20.1446 1.75695 38
39.3396 -19.9757 1.83045 37
39.2667 -20.1085 1.91023 38
39.3537 -19.96 1.98397 39
39.3034 -20.0698 2.06319 37
39.3199 -20.0149 2.13909 37
39.3137 -20.0262 2.21628 37
39.3452 -19.9963 2.29257 36
39.2719 -20.1386 2.37254 38
39.361 -19.9737 2.44607 36
39.3004 -20.1129 2.526 38
39.3776 -19.9592 2.5998 38
39.3473 -20.0246 2.75523 39
39.3583 -20.0073 2.90896 39
39.3801 -19.9792 3.06256 35
39.3591 -19.9456 3.21539 39
39.352 -20.1395 3.76127 41
39.5454 -20.1068 4.54098 17
39.5199 -20.0687 5.74266 17
39.4106 -19.9679 6.89683 39
42.7156 -21.5225 9.37138 17
39.4892 -20.0793 10.8226 33
41.6749 -20.9078 14.2805 26
3.27467 -1.72237 0.27676 10
2.41115 -1.25347 1.0369 53
2.52628 -1.3166 1.18199 54
2.5654 -1.32281 1.30306 58
2.60065 -1.35321 1.38898 49
9.98525 -5.18804 -0.0895181 10
11.408 -5.91272 -0.133841 12
12.7742 -6.61179 -0.161347 11
13.8659 -7.18687 -0.152896 10
15.5956 -8.03758 -0.26471 23
15.6698 -8.12469 -0.183885 39
15.6434 -8.0848 -0.0702155 33
15.6498 -8.08592 0.0254332 50
15.6495 -8.05783 0.0885224 41
15.6521 -8.04507 0.150678 41
15.6255 -8.08915 0.213976 38
15.6116 -8.06446 0.277936 37
15.6592 -8.06107 0.3354 34
nan nan nan nan
nan nan nan nan
17.642 -9.11126 0.332319 4
17.5894 -9.02973 0.40787 4
17.6752 -9.08161 0.469592 4
17.6782 -9.12016 0.538363 4
17.7432 -9.15763 0.602855 10
17.6527 -9.06028 0.680264 4
nan nan nan nan
nan nan nan nan
nan nan nan nan
18.1694 -9.39775 0.890919 1
nan nan nan nan
18.2263 -9.41521 0.959221 3
nan nan nan nan
nan nan nan nan
22.2865 -11.4919 0.857947 3
nan nan nan nan
22.4854 -11.6051 0.936056 9
22.5289 -11.6452 0.982656 3
nan nan nan nan
nan nan nan nan
nan nan nan nan
39.3797 -20.2935 0.520527 12
nan nan nan nan
39.3803 -20.2708 0.675145 39
39.2912 -20.2741 0.755475 40
39.3083 -20.2454 0.831972 39
39.3031 -20.2052 0.909092 40
39.3156 -20.2175 0.985927 40
39.318 -20.1726 1.0627 40
39.2496 -20.309 1.14262 40
39.3431 -20.1634 1.21623 40
39.274 -20.2899 1.29611 41
39.2994 -20.2653 1.38015 40
39.3074 -20.2407 1.44915 41
39.327 -20.2046 1.5255 41
39.3074 -20.2004 1.6029 40
39.3365 -20.1778 1.67925 41
39.2804 -20.3206 1.75913 42
39.3587 -20.1585 1.83293 40
39.2851 -20.2913 1.9129 42
39.3639 -20.1382 1.98681 39
39.3211 -20.2435 2.06606 40
39.3432 -20.2 2.14229 41
39.3281 -20.2067 2.21962 38
39.3597 -20.1768 2.29607 40
39.3026 -20.3192 2.37619 42
39.3845 -20.1588 2.45001 39
39.3188 -20.2958 2.53007 41
39.4012 -20.1443 2.6041 39
39.3661 -20.2075 2.75981 41
39.3727 -20.1879 2.91379 41
39.3991 -20.162 3.06784 40
39.3871 -20.1329 3.22129 39
39.3569 -20.3156 3.76754 40
39.5459 -20.281 4.54845 20
39.5603 -20.2631 5.75607 12
39.4245 -20.1481 6.91018 39
42.3975 -21.548 9.33256 11
39.4839 -20.2502 10.8401 32
41.6658 -21.0854 14.3026 23
3.26873 -1.73386 0.277002 4
2.41514 -1.2663 1.03369 48
2.52171 -1.32544 1.18217 53
2.5608 -1.33178 1.30325 97
2.59618 -1.36185 1.38916 43
9.96284 -5.22067 -0.0878682 10
11.383 -5.95031 -0.132182 12
12.7555 -6.65871 -0.161156 11
13.8496 -7.2399 -0.153249 10
15.6159 -8.11722 -0.270628 25
15.6678 -8.19322 -0.186429 41
15.6519 -8.15506 -0.0738091 33
15.6524 -8.15665 0.0226706 40
15.6522 -8.12851 0.0858792 42
15.6593 -8.11804 0.147631 36
15.6414 -8.16673 0.210058 36
15.6806 -8.16954 0.26832 42
15.6929 -8.14786 0.329941 29
15.7967 -8.18748 0.384877 32
15.6892 -8.18997 0.453485 28
15.9222 -8.29364 0.493887 3
17.6862 -9.15759 0.397488 4
17.7497 -9.19838 0.461647 4
17.7083 -9.21408 0.534514 3
17.72 -9.22417 0.603455 4
17.7318 -9.17924 0.673236 3
nan nan nan nan
nan nan nan nan
nan nan nan nan
18.3047 -9.5489 0.881935 5
nan nan nan nan
21.7138 -11.3136 0.758552 8
nan nan nan nan
nan nan nan nan
nan nan nan nan
nan nan nan nan
nan nan nan nan
22.4483 -11.703 0.986115 3
22.6202 -11.7004 1.01851 10
nan nan nan nan
nan nan nan nan
23.148 -12.0279 1.13205 3
39.228 -20.3861 0.603645 42
39.3493 -20.4289 0.676682 38
39.2734 -20.4389 0.756665 39
39.3085 -20.4194 0.832737 36
39.3123 -20.3837 0.909746 36
39.3114 -20.3892 0.987084 40
39.3407 -20.358 1.06335 38
39.2796 -20.4899 1.14322 37
39.3613 -20.3465 1.21733 39
39.2916 -20.473 1.29739 39
39.3038 -20.4415 1.38184 40
39.3076 -20.4147 1.45103 40
39.3362 -20.3831 1.52742 41
39.3166 -20.3789 1.60497 40
39.3547 -20.3609 1.68141 40
39.2882 -20.49 1.7614 41
39.3725 -20.3393 1.83545 40
39.2894 -20.4676 1.91561 41
39.3778 -20.319 1.98966 40
39.3301 -20.4221 2.06907 37
39.3524 -20.3786 2.14546 38
39.3461 -20.3899 2.22299 38
39.3779 -20.36 2.29962 38
39.3015 -20.484 2.37957 37
39.3938 -20.3374 2.4538 37
39.3275 -20.4744 2.53403 38
39.4061 -20.3206 2.60814 38
39.3708 -20.3838 2.76415 40
39.3819 -20.3664 2.91853 39
39.4083 -20.3406 3.07289 40
39.4009 -20.3137 3.22679 39
39.361 -20.492 3.77381 36
39.5679 -20.467 4.55736 20
39.5732 -20.4443 5.76697 10
39.4332 -20.3263 6.92299 36
39.6612 -20.3319 8.87434 14
39.5127 -20.4393 10.8655 33
nan nan nan nan
3.25078 -1.73892 0.283633 4
2.41907 -1.27916 1.03048 50
2.51712 -1.33427 1.18236 64
2.55618 -1.34074 1.30344 61
2.60851 -1.38052 1.38522 41
9.94901 -5.25779 -0.0880513 11
11.371 -5.99469 -0.132988 12
12.7323 -6.70328 -0.160218 10
13.8682 -7.31138 -0.159075 8
15.614 -8.18558 -0.27333 23
15.6919 -8.27573 -0.19266 41
15.666 -8.23555 -0.0784526 31
15.6636 -8.23211 0.018797 47
15.6635 -8.20393 0.0821596 43
15.6794 -8.19808 0.14302 40
15.6481 -8.23988 0.207159 38
15.6609 -8.22892 0.268494 40
15.6865 -8.21419 0.328735 31
15.7284 -8.22186 0.390116 32
15.643 -8.23546 0.456385 28
15.9285 -8.36776 0.491703 4
17.7868 -9.28855 0.386723 4
17.8633 -9.33657 0.450256 4
17.8836 -9.38477 0.518562 3
nan nan nan nan
17.8456 -9.31733 0.663566 3
18.268 -9.54209 0.703876 1
18.2503 -9.57507 0.77671 10
18.2727 -9.59512 0.847282 8
21.6205 -11.3749 0.67774 23
21.6476 -11.2956 0.719566 25
21.661 -11.3824 0.760909 8
nan nan nan nan
21.9819 -11.532 0.829363 1
nan nan nan nan
22.4249 -11.7501 0.894212 3
nan nan nan nan
22.372 -11.7627 0.98937 1
22.5748 -11.777 1.02037 3
22.5531 -11.8437 1.06568 7
nan nan nan nan
23.0684 -12.0941 1.13517 3
39.254 -20.574 0.60305 31
34.1108 -17.8609 0.853765 37
39.2551 -20.6038 0.757864 41
39.3344 -20.6076 0.832723 40
39.3207 -20.5625 0.910414 40
39.3553 -20.5865 0.986994 39
39.3669 -20.5461 1.06391 40
39.3688 -20.729 1.14272 12
39.3743 -20.5277 1.21854 41
39.2731 -20.638 1.29933 40
30.466 -15.9805 1.52291 12
30.4272 -15.9375 1.57721 13
30.4383 -15.907 1.63656 37
30.4059 -15.8944 1.69684 13
39.3366 -20.5259 1.68386 40
39.2897 -20.6918 1.76421 38
39.3767 -20.5159 1.83802 37
39.3019 -20.6488 1.91832 37
39.3821 -20.4956 1.99253 37
39.3383 -20.601 2.0721 36
39.3608 -20.5574 2.14864 36
39.3456 -20.5641 2.22628 36
39.3775 -20.5342 2.30305 34
39.3119 -20.6904 2.38379 37
39.398 -20.5139 2.45756 34
39.3354 -20.6533 2.538 35
39.4148 -20.4995 2.61226 34
39.3835 -20.565 2.76868 36
39.3991 -20.55 2.92349 37
39.4257 -20.5241 3.0782 35
39.4096 -20.4925 3.23217 39
39.3953 -20.6849 3.7815 34
39.5492 -20.6325 4.5637 12
39.5677 -20.6167 5.77619 8
39.472 -20.521 6.93967 36
41.7317 -21.5773 9.2495 11
39.5102 -20.613 10.884 41
41.6539 -21.4455 14.3495 26
3.24876 -1.75248 0.281744 5
2.40219 -1.28099 1.03574 42
2.51249 -1.34308 1.18255 64
2.5601 -1.35424 1.30125 50
2.59051 -1.3832 1.38853 33
9.93071 -5.29257 -0.087317 14
11.3501 -6.03443 -0.132149 13
12.7133 -6.75008 -0.160024 11
13.917 -7.39936 -0.169684 6
15.638 -8.26794 -0.279875 23
15.7069 -8.35384 -0.197651 42
15.6797 -8.31625 -0.0830882 28
15.6788 -8.31008 0.0143722 45
15.6744 -8.27953 0.0784465 41
15.6904 -8.27371 0.139463 43
15.6545 -8.31318 0.204267 38
15.6629 -8.29991 0.266229 38
15.6754 -8.27826 0.328005 32
15.7173 -8.28606 0.389461 36
15.6319 -8.29941 0.455793 28
15.9389 -8.44436 0.489106 6
17.8866 -9.42032 0.375979 4
nan nan nan nan
17.9743 -9.51248 0.509609 4
17.9728 -9.51578 0.580909 3
17.9455 -9.44935 0.654915 3
18.2303 -9.60352 0.705535 3
18.208 -9.63409 0.778648 10
nan nan nan nan
21.5896 -11.455 0.678792 22
21.586 -11.3595 0.72247 24
21.63 -11.4626 0.761998 8
21.8152 -11.4905 0.794944 3
21.9396 -11.6125 0.831062 3
nan nan nan nan
22.3883 -11.8306 0.895644 3
nan nan nan nan
nan nan nan nan
22.5381 -11.8581 1.02183 1
22.5072 -11.9201 1.06752 7
22.8149 -12.0147 1.09977 5
22.9445 -12.1366 1.13994 3
33.9198 -17.9297 0.793676 34
33.7168 -17.8048 0.867445 38
33.9925 -17.9933 0.925398 36
34.0387 -17.9847 0.99101 35
34.0715 -17.969 1.05712 31
34.1106 -17.9946 1.12335 36
34.2347 -18.0193 1.18741 29
33.9637 -18.0429 1.26208 40
30.4923 -16.0334 1.3967 13
34.6509 -18.3638 1.38359 20
30.4454 -16.1055 1.5246 17
30.4422 -16.081 1.57847 28
30.418 -16.0318 1.63838 36
30.3415 -15.9958 1.69916 31
39.3709 -20.719 1.6859 39
30.6209 -16.271 1.81889 10
39.389 -20.6974 1.84057 29
nan nan nan nan
nan nan nan nan
30.5784 -16.1496 2.05897 3
39.3729 -20.7389 2.15185 37
39.362 -20.7479 2.22969 33
39.3985 -20.7204 2.30666 37
30.7305 -16.3189 2.3035 33
30.7871 -16.1679 2.36098 14
39.3824 -20.8536 2.54254 39
39.4315 -20.6834 2.61654 38
39.3955 -20.7465 2.77322 42
39.4112 -20.7315 2.92836 39
39.4468 -20.7103 3.08364 40
39.4351 -20.681 3.23812 39
39.4022 -20.8642 3.78801 40
39.5475 -20.8075 4.5712 10
41.3476 -21.7279 5.95636 9
39.4659 -20.693 6.95086 41
41.4324 -21.606 9.21364 10
39.52 -20.7937 10.9055 34
41.5696 -21.5857 14.35 29
3.22285 -1.75307 0.292633 5
2.41432 -1.29833 1.02915 34
2.5036 -1.34959 1.18413 57
2.55967 -1.36549 1.30025 49
8.70993 -4.68012 -0.0826023 11
9.90795 -5.32496 -0.0856667 11
11.3291 -6.07409 -0.13131 12
12.6942 -6.79684 -0.159829 12
13.9611 -7.48543 -0.179597 6
15.6223 -8.32957 -0.280643 25
15.7127 -8.42747 -0.201407 42
15.6813 -8.3874 -0.0860207 42
15.7023 -8.39294 0.00883973 41
15.6982 -8.36231 0.0731192 42
15.6966 -8.34719 0.136436 41
15.6649 -8.38896 0.200875 40
15.6734 -8.3757 0.262993 38
15.6904 -8.35639 0.324452 30
15.7235 -8.35964 0.386999 38
15.6644 -8.38689 0.450845 29
15.9446 -8.51878 0.486934 8
17.9945 -9.55758 0.364452 4
18.0664 -9.60395 0.429463 4
18.0466 -9.63155 0.502142 5
18.1023 -9.66542 0.569323 3
18.0755 -9.59857 0.643962 3
18.2011 -9.66948 0.706564 3
nan nan nan nan
21.5082 -11.4862 0.640497 8
21.5451 -11.528 0.680658 22
21.5639 -11.4442 0.723012 24
21.5768 -11.531 0.764355 20
21.7707 -11.5642 0.796797 3
21.8108 -11.642 0.837397 3
21.8817 -11.6728 0.876973 3
22.0207 -11.7349 0.913455 3
nan nan nan nan
nan nan nan nan
nan nan nan nan
22.4788 -12.0056 1.06863 7
22.7332 -12.0732 1.10302 5
22.8623 -12.1954 1.14313 4
33.5571 -17.8882 0.806877 31
33.6237 -17.906 0.870973 36
33.6077 -17.9401 0.938113 38
33.6582 -17.9342 1.00296 39
33.9027 -18.0315 1.06257 36
33.9461 -18.0596 1.12848 34
33.9377 -18.0145 1.1955 37
33.8156 -18.1083 1.26639 38
33.9918 -18.0248 1.32834 23
30.3978 -16.2462 1.46088 30
30.4155 -16.2258 1.52643 29
30.4697 -16.2318 1.57955 29
30.3442 -16.1285 1.64083 34
30.2811 -16.0993 1.70144 30
39.3602 -20.8891 1.6883 20
30.5961 -16.3813 1.82077 13
30.7056 -16.2723 1.87837 35
30.5308 -16.3139 1.94143 28
30.5059 -16.1479 1.99928 37
30.4778 -16.2328 2.06114 1
30.3808 -16.1378 2.1202 40
nan nan nan nan
nan nan nan nan
30.7011 -16.4271 2.30577 36
39.4261 -20.8796 2.46537 37
39.3623 -21.0192 2.54618 35
39.443 -20.8653 2.62076 39
39.4111 -20.9308 2.77786 38
39.418 -20.9111 2.93314 37
39.4404 -20.8829 3.08838 40
39.4333 -20.8558 3.24325 38
39.3952 -21.0368 3.79392 35
39.5627 -20.9921 4.57987 9
41.0777 -21.7692 5.94082 10
39.4767 -20.8745 6.96426 36
41.1333 -21.6329 9.17775 11
39.5334 -20.9771 10.928 39
41.2406 -21.5978 14.2778 17
3.2168 -1.76438 0.292873 5
nan nan nan nan
2.50313 -1.36065 1.18292 57
2.5592 -1.37675 1.29924 46
8.69016 -4.70673 -0.0809536 11
9.89374 -5.36193 -0.0858471 17
11.308 -6.11368 -0.130471 13
12.6705 -6.84119 -0.158889 10
13.9873 -7.56247 -0.186764 4
15.6253 -8.39784 -0.284028 17
15.7139 -8.49888 -0.204543 42
15.6841 -8.45592 -0.0890062 43
15.708 -8.46663 0.00554454 40
15.7055 -8.4332 0.0699021 42
15.7026 -8.4208 0.133415 42
15.6706 -8.46256 0.197995 40
15.6793 -8.44931 0.260251 39
15.689 -8.42256 0.322732 41
15.7251 -8.43101 0.384995 37
15.6526 -8.45103 0.450264 35
15.985 -8.61225 0.481423 9
16.4954 -8.83143 0.499684 6
16.6094 -8.9036 0.555099 12
18.1579 -9.77251 0.491396 4
18.1871 -9.79245 0.561249 3
18.1756 -9.72915 0.635287 3
18.1717 -9.73536 0.707595 3
21.591 -11.6172 0.548626 10
21.5208 -11.5897 0.638741 8
21.5224 -11.6127 0.681173 42
21.5127 -11.5086 0.725311 40
21.532 -11.6039 0.766206 20
21.739 -11.6449 0.797917 3
21.9349 -11.8019 0.83022 3
21.8013 -11.7279 0.880632 3
21.9752 -11.8094 0.915303 1
nan nan nan nan
22.2521 -11.9988 0.994119 3
nan nan nan nan
22.4324 -12.0817 1.07048 10
22.6733 -12.1431 1.1054 5
22.813 -12.2665 1.14507 4
33.5166 -18.0171 0.808574 17
33.5214 -18.002 0.874795 36
33.5362 -18.0526 0.94088 37
33.5822 -18.0445 1.00585 38
33.6125 -18.0128 1.0713 36
33.6847 -18.0716 1.1361 38
33.8173 -18.1021 1.19937 38
33.707 -18.1942 1.26982 37
33.867 -18.1104 1.33208 35
33.8881 -18.2638 1.39999 28
30.3499 -16.3271 1.52882 33
30.1971 -16.2222 1.58479 30
30.3022 -16.2285 1.64275 33
30.1806 -16.1812 1.70412 34
nan nan nan nan
30.5681 -16.4969 1.82277 36
30.5825 -16.344 1.8809 34
30.4737 -16.4203 1.94369 34
30.4141 -16.2354 2.00153 33
30.3725 -16.313 2.0633 1
30.3167 -16.2261 2.12217 38
30.2797 -16.231 2.18238 41
30.4488 -16.285 2.24291 37
30.5892 -16.498 2.30736 35
30.8058 -16.453 2.36709 11
39.4031 -21.218 2.55068 29
31.2579 -16.6753 2.49561 23
31.3099 -16.7542 2.62149 17
39.4461 -21.1027 2.93846 42
39.4731 -21.0769 3.09422 35
39.444 -21.0379 3.24881 34
39.4226 -21.2286 3.80146 41
39.5903 -21.1841 4.58941 10
40.7815 -21.7949 5.92272 10
39.4998 -21.0634 6.97934 35
40.7996 -21.6394 9.13572 11
39.5546 -21.1655 10.9525 39
40.9164 -21.6102 14.2068 14
3.21071 -1.77567 0.293113 5
nan nan nan nan
2.50262 -1.37173 1.18171 53
2.56721 -1.39266 1.29587 46
8.6789 -4.73794 -0.0813746 11
9.87507 -5.39652 -0.0851114 11
11.291 -6.15556 -0.130451 11
12.651 -6.88783 -0.158691 13
14.0174 -7.64216 -0.194607 4
15.6265 -8.46896 -0.287351 14
15.7147 -8.5704 -0.207673 42
15.6866 -8.52455 -0.0919869 42
15.7091 -8.53809 0.00281227 42
15.7067 -8.50462 0.0672889 42
15.7038 -8.4922 0.130922 42
15.6761 -8.53631 0.195121 42
15.6847 -8.52306 0.257515 41
15.699 -8.49867 0.319663 42
15.7263 -8.50249 0.382996 42
15.6843 -8.53901 0.445333 39
15.9549 -8.66805 0.482609 12
16.4689 -8.89137 0.500505 3
18.2446 -9.86275 0.410669 3
18.2728 -9.91673 0.480307 4
18.3414 -9.95825 0.547619 3
18.3304 -9.8945 0.622394 3
nan nan nan nan
21.546 -11.6901 0.550525 10
21.4759 -11.6624 0.640617 26
21.4774 -11.6854 0.683041 38
21.4725 -11.5836 0.726905 39
21.4871 -11.6767 0.768056 20
21.6983 -11.7208 0.799528 3
21.9177 -11.8865 0.83059 3
21.7208 -11.7825 0.884287 3
21.9252 -11.8813 0.917368 3
22.0271 -11.9593 0.955987 1
22.2102 -12.0765 0.995771 3
22.2874 -12.0208 1.0323 5
22.3945 -12.1623 1.07196 8
22.6177 -12.215 1.1076 6
22.7898 -12.3516 1.14601 5
33.3701 -18.0888 0.814037 23
33.4101 -18.0927 0.878908 30
33.4071 -18.1338 0.945456 26
33.4444 -18.1212 1.01056 36
33.4671 -18.0931 1.07611 37
33.516 -18.132 1.14131 39
33.688 -18.1845 1.20344 40
33.5675 -18.2629 1.27391 40
30.5033 -16.4491 1.39987 13
nan nan nan nan
30.2884 -16.4306 1.53114 36
30.2458 -16.3846 1.58557 32
30.2733 -16.3561 1.64474 23
nan nan nan nan
nan nan nan nan
30.6494 -16.6722 1.82413 36
30.5517 -16.4649 1.88306 40
30.4162 -16.5266 1.94596 37
30.3528 -16.3391 2.00379 40
30.2714 -16.3951 2.06546 1
30.2791 -16.3489 2.12461 35
30.2229 -16.3366 2.18462 20
30.2113 -16.2938 2.24372 36
30.3191 -16.4823 2.30735 35
nan nan nan nan
30.9059 -16.7822 2.43553 12
31.1334 -16.7488 2.49687 12
31.0371 -16.7548 2.61972 17
39.469 -21.2925 2.94369 43
39.4829 -21.2595 3.09946 40
39.4583 -21.2228 3.25452 42
39.4228 -21.4065 3.80781 25
39.5555 -21.3434 4.59493 32
39.613 -21.3484 5.82041 25
39.5133 -21.248 6.99333 41
39.6385 -21.2011 8.94847 38
39.575 -21.3542 10.977 36
39.6924 -21.141 13.8665 38
3.20458 -1.78693 0.293353 5
3.32777 -1.83484 0.64896 3
2.49786 -1.38049 1.18189 43
2.55812 -1.39931 1.29725 47
8.66325 -4.76678 -0.08076 10
9.85628 -5.43104 -0.0843751 17
11.2782 -6.19977 -0.13125 14
12.6313 -6.93441 -0.158493 11
13.9908 -7.69112 -0.193563 8
15.6492 -8.55209 -0.293867 23
15.7196 -8.64442 -0.211411 43
15.6932 -8.59567 -0.0955458 31
15.6924 -8.60011 0.00231171 41
15.6901 -8.56661 0.0668384 42
15.7003 -8.56132 0.128957 44
15.6724 -8.6054 0.193261 42
15.6812 -8.59217 0.255759 41
15.6984 -8.57292 0.317599 38
15.7228 -8.5717 0.381455 39
15.6851 -8.61053 0.443456 37
15.929 -8.72613 0.483379 23
16.7136 -9.09902 0.4765 10
17.0591 -9.2987 0.512752 9
18.365 -10.0499 0.471068 4
18.4335 -10.0917 0.538891 3
18.4535 -10.0443 0.611846 3
21.4335 -11.677 0.472136 3
21.5095 -11.7677 0.551831 59
21.4395 -11.7397 0.641937 42
21.4366 -11.7603 0.68464 42
21.4276 -11.6562 0.72876 49
21.4463 -11.7517 0.769655 17
21.6617 -11.7989 0.800896 3
21.6372 -11.8274 0.845054 3
21.684 -11.8607 0.885677 3
21.9011 -11.9674 0.918129 3
21.9897 -12.0385 0.957418 1
22.1679 -12.1539 0.997424 3
22.2366 -12.0938 1.03433 3
22.3607 -12.2453 1.07326 9
22.5179 -12.2628 1.11154 13
22.7707 -12.4391 1.1468 4
33.2893 -18.1956 0.817144 14
33.3292 -18.1997 0.881983 36
33.3042 -18.2287 0.94919 33
33.3371 -18.2139 1.01434 34
33.3336 -18.1715 1.08054 38
33.3955 -18.2178 1.14526 39
33.5629 -18.2685 1.2074 39
33.4016 -18.3164 1.27857 37
33.551 -18.2437 1.34083 23
30.4672 -16.6958 1.46337 23
nan nan nan nan
30.4078 -16.6099 1.5848 23
30.339 -16.5286 1.64554 23
30.405 -16.5758 1.70528 29
30.8 -16.7608 1.76219 17
30.6773 -16.8194 1.82582 30
30.8499 -16.7648 1.88396 29
30.3627 -16.6351 1.94821 36
30.3 -16.4473 2.00604 37
30.2228 -16.5054 2.06773 1
30.235 -16.4617 2.12692 36
30.192 -16.4563 2.18703 33
30.2377 -16.4445 2.24664 35
30.0538 -16.4674 2.30736 41
nan nan nan nan
nan nan nan nan
30.7452 -16.6785 2.49391 34
30.8613 -16.8062 2.61986 29
39.4646 -21.4683 2.94831 42
39.4874 -21.44 3.1046 42
39.4631 -21.4032 3.25997 42
nan nan nan nan
39.4675 -21.474 4.59701 40
29.9515 -16.2766 4.89622 36
39.5173 -21.4282 7.00622 36
39.5856 -21.3508 8.95522 40
39.6031 -21.5481 11.0034 36
39.7157 -21.3315 13.8988 40
3.19841 -1.79818 0.293594 5
3.29643 -1.83334 0.659371 3
2.49307 -1.38923 1.18208 41
2.57025 -1.41766 1.29268 39
8.64667 -4.79707 -0.0801129 13
9.83738 -5.46549 -0.0836384 12
11.2437 -6.23201 -0.127948 11
12.6028 -6.97614 -0.156806 13
13.964 -7.74 -0.192518 9
15.6483 -8.62624 -0.297119 25
15.7111 -8.71136 -0.213303 42
15.6937 -8.66727 -0.0984571 31
15.6971 -8.67414 -0.000967503 40
15.6935 -8.64332 0.0637543 43
15.7053 -8.63532 0.125953 42
15.6816 -8.6818 0.189894 41
15.6904 -8.66858 0.252548 43
15.7019 -8.64968 0.315071 43
15.7365 -8.65059 0.378112 43
15.6855 -8.68217 0.441585 40
15.9029 -8.78415 0.48415 17
16.6366 -9.13628 0.481808 12
17.0179 -9.35343 0.514788 9
nan nan nan nan
nan nan nan nan
16.4969 -9.05769 0.758369 4
21.5152 -11.8191 0.464968 28
21.464 -11.8404 0.553731 219
21.429 -11.8314 0.64159 41
21.4042 -11.84 0.685702 41
21.3848 -11.7347 0.730435 49
21.4052 -11.8265 0.771256 17
21.6249 -11.8769 0.802266 3
21.6614 -11.9391 0.84315 3
21.6469 -11.9387 0.887068 3
21.8856 -12.0582 0.918459 3
21.952 -12.1176 0.95885 1
22.1298 -12.2337 0.99888 3
22.1878 -12.1728 1.03626 3
22.3135 -12.3208 1.07511 9
22.4969 -12.3534 1.11235 6
22.7885 -12.5523 1.14619 3
33.2125 -18.3045 0.820094 29
33.213 -18.287 0.886234 32
33.2098 -18.328 0.952644 28
33.234 -18.3084 1.018 36
33.3019 -18.3129 1.08218 37
33.2967 -18.315 1.14865 39
33.4201 -18.3423 1.21177 38
33.1943 -18.3613 1.28422 36
30.5281 -16.7386 1.40164 23
30.4088 -16.802 1.46564 33
30.4094 -16.772 1.53199 22
30.3585 -16.7208 1.58695 32
30.4053 -16.7095 1.64642 14
30.6537 -16.8505 1.70456 13
30.6931 -16.8417 1.76486 32
30.6067 -16.9269 1.82827 11
30.7824 -16.8675 1.88629 35
30.3657 -16.7748 1.95037 37
30.2468 -16.5553 2.00829 35
30.1781 -16.618 2.07001 1
30.0605 -16.5098 2.1288 33
30.0993 -16.5423 2.18906 33
30.1232 -16.5187 2.24842 30
29.9932 -16.5774 2.30971 35
nan nan nan nan
30.0264 -16.5771 2.42929 39
30.3797 -16.6178 2.49125 34
29.7742 -16.3559 2.60162 25
39.4946 -21.6635 2.95378 42
39.5044 -21.628 3.11012 36
29.8767 -16.3393 2.95834 12
nan nan nan nan
29.3442 -16.0988 3.9369 13
29.8857 -16.3761 4.8976 31
39.5466 -21.623 7.02245 35
39.6147 -21.5452 8.97652 37
39.6218 -21.7377 11.0279 35
39.7211 -21.5132 13.926 40
3.18433 -1.80494 0.29809 5
3.25726 -1.82647 0.67315 3
2.49243 -1.40032 1.18087 38
7.3834 -4.11454 -0.0576093 11
8.62571 -4.82492 -0.0784314 11
9.81501 -5.49576 -0.0820241 14
11.2306 -6.27612 -0.128745 13
12.5742 -7.01777 -0.15512 11
13.9111 -7.77428 -0.187379 9
15.6572 -8.70258 -0.301702 17
15.7241 -8.79045 -0.218256 41
15.7025 -8.74382 -0.102529 40
15.719 -8.75797 -0.00646424 41
15.7155 -8.72709 0.0584626 43
15.7143 -8.71186 0.122434 42
15.6832 -8.75078 0.187483 41
15.6949 -8.74273 0.24983 43
15.7124 -8.72351 0.311963 36
15.7499 -8.72968 0.374777 43
15.6872 -8.75117 0.43966 37
15.8635 -8.83481 0.486174 20
16.5175 -9.14605 0.491046 29
nan nan nan nan
16.4599 -9.15757 0.627391 10
16.4451 -9.15298 0.694484 11
16.4347 -9.09834 0.761912 12
21.4913 -11.9038 0.465323 226
21.5011 -11.9589 0.550023 172
21.4139 -11.9208 0.641527 42
21.3933 -11.9317 0.685421 48
21.3526 -11.8141 0.731511 39
21.3769 -11.9085 0.772102 20
21.5833 -11.9523 0.803881 3
21.9122 -12.1771 0.829079 3
21.6139 -12.0191 0.888236 3
nan nan nan nan
nan nan nan nan
22.0521 -12.2914 1.00212 3
22.1452 -12.2502 1.03792 3
22.2792 -12.4035 1.07642 8
22.4887 -12.4513 1.11265 6
22.7927 -12.6584 1.14608 3
33.0917 -18.3888 0.8246 29
33.1185 -18.3859 0.889745 32
33.1108 -18.4244 0.956232 25
33.1263 -18.4001 1.02178 32
33.1373 -18.3733 1.08744 37
33.1277 -18.3729 1.15383 37
33.146 -18.3426 1.21923 39
33.0383 -18.426 1.28869 41
33.1604 -18.3324 1.35099 38
30.3544 -16.9105 1.46784 13
30.3988 -16.9048 1.53352 28
30.3 -16.8267 1.58922 20
30.3425 -16.8131 1.64874 33
30.4547 -16.8798 1.70821 14
30.5379 -16.8955 1.76789 31
30.5562 -17.0385 1.83051 17
30.719 -16.9724 1.8886 35
30.3332 -16.8952 1.9526 34
30.1845 -16.6584 2.01055 33
30.1155 -16.7208 2.07226 3
30.1077 -16.6727 2.1315 36
30.0808 -16.669 2.19156 32
30.0784 -16.631 2.25078 23
29.9919 -16.7136 2.31254 39
30.0609 -16.5986 2.36995 36
29.9334 -16.6623 2.43104 40
29.8881 -16.4846 2.4865 37
29.6848 -16.4351 2.60303 33
29.7736 -16.4657 2.72307 14
39.5118 -21.8116 3.11541 33
29.5962 -16.3203 2.95339 37
28.9422 -16.1106 3.3417 23
29.2921 -16.2035 3.93938 41
29.8064 -16.4681 4.89771 39
39.5446 -21.8015 7.03482 34
39.6299 -21.7329 8.99553 37
39.631 -21.9229 11.0505 35
39.7513 -21.7091 13.9609 37
3.17024 -1.81162 0.302586 4
3.23046 -1.82629 0.681851 3
6.10717 -3.46411 -0.0303175 12
7.37334 -4.14275 -0.058244 11
8.61319 -4.85748 -0.0788171 10
9.80112 -5.53077 -0.0822375 10
11.2087 -6.31536 -0.127902 11
12.554 -7.06413 -0.154919 10
13.8926 -7.82774 -0.187698 9
15.6831 -8.78879 -0.308834 30
15.7366 -8.86974 -0.223202 40
15.7196 -8.82539 -0.107759 41
15.7101 -8.82503 -0.00806332 41
15.7111 -8.79654 0.05641 41
15.7273 -8.791 0.1184 43
15.6932 -8.82474 0.184069 41
15.6948 -8.81458 0.247604 43
15.7123 -8.79539 0.309858 37
15.7368 -8.79438 0.374153 40
15.6712 -8.81052 0.439476 38
15.8327 -8.89018 0.487363 20
16.4812 -9.20128 0.492682 31
16.4867 -9.21183 0.558206 34
16.4382 -9.21702 0.627835 29
16.4174 -9.21282 0.69537 14
16.416 -9.163 0.762153 11
21.4454 -11.9764 0.467245 192
21.4789 -12.04 0.550375 160
21.3896 -12.0053 0.642023 41
21.369 -12.0161 0.685952 37
21.32 -11.8935 0.732588 41
21.3527 -11.9928 0.772701 17
21.5546 -12.0349 0.804768 3
21.8391 -12.2365 0.832358 3
21.7918 -12.2128 0.87852 3
22.1584 -12.4109 0.903986 4
nan nan nan nan
nan nan nan nan
nan nan nan nan
22.2314 -12.4788 1.07827 8
22.48 -12.5492 1.11295 5
33.1267 -18.5473 0.757244 6
33.0175 -18.4911 0.827422 30
33.0498 -18.499 0.892373 25
33.0027 -18.5154 0.960093 30
33.0139 -18.4887 1.02568 30
33.025 -18.462 1.09125 32
33.0067 -18.4567 1.15776 35
33.0207 -18.4241 1.22316 31
32.9259 -18.5143 1.2922 38
33.047 -18.4131 1.35437 37
30.2952 -17.0164 1.47011 25
30.357 -17.0206 1.53553 38
30.2978 -16.9641 1.59072 36
30.2662 -16.9092 1.65122 32
30.2735 -16.9177 1.71166 36
nan nan nan nan
nan nan nan nan
30.4048 -16.9307 1.89172 36
30.2741 -17.001 1.95487 29
nan nan nan nan
nan nan nan nan
29.9838 -16.7411 2.13346 37
30.0137 -16.769 2.19375 32
30.0115 -16.7309 2.25296 33
29.9596 -16.8329 2.31506 37
30.0188 -16.7055 2.37225 34
29.5786 -16.6003 2.42901 36
29.6512 -16.4892 2.48581 33
29.7058 -16.5825 2.60685 33
29.8119 -16.6231 2.72763 11
29.3751 -16.344 2.83335 11
28.9624 -16.1029 2.93698 31
28.8857 -16.2115 3.34387 39
29.2092 -16.2909 3.93984 38
29.8051 -16.6034 4.90546 37
39.5679 -21.9947 7.05053 25
39.6394 -21.9093 9.01289 38
39.6565 -22.118 11.077 35
39.7593 -21.8939 13.9894 40
3.16007 -1.82049 0.304953 4
3.22822 -1.83994 0.680403 4
6.08681 -3.48072 -0.0270631 12
7.35049 -4.16375 -0.0553131 11
8.60395 -4.89394 -0.0802026 14
9.77993 -5.56845 -0.0814257 17
11.1867 -6.35453 -0.127059 13
12.5466 -7.11774 -0.156943 13
13.9127 -7.90318 -0.19415 10
15.674 -8.85577 -0.310848 29
15.7532 -8.95167 -0.228754 41
15.7219 -8.90259 -0.111176 43
15.7398 -8.91417 -0.0146558 41
15.7366 -8.88317 0.0505954 42
15.7313 -8.86546 0.115415 48
15.6967 -8.90984 0.180899 41
15.703 -8.89144 0.244411 43
15.7206 -8.87227 0.306821 50
15.7538 -8.87621 0.370381 42
15.7008 -8.91029 0.434327 71
15.8016 -8.94545 0.488553 20
16.3622 -9.2099 0.501901 29
16.4676 -9.27672 0.558298 30
16.5113 -9.3415 0.62009 28
16.3809 -9.26766 0.696951 23
16.3709 -9.21294 0.764373 14
21.3992 -12.0488 0.469166 53
nan nan nan nan
21.3129 -12.0602 0.645847 30
21.314 -12.0833 0.688364 33
21.2741 -11.9654 0.734448 38
21.3369 -12.0821 0.772802 20
21.5517 -12.1322 0.804205 3
21.5985 -12.2059 0.844589 1
21.7535 -12.3014 0.879871 3
21.867 -12.3482 0.917967 3
nan nan nan nan
nan nan nan nan
nan nan nan nan
22.2008 -12.5638 1.0794 9
22.484 -12.6546 1.11274 5
33.0673 -18.6736 0.759529 12
32.9811 -18.6375 0.82891 29
33.2985 -18.7911 0.88432 23
32.864 -18.5887 0.964911 28
32.9014 -18.5769 1.02958 34
32.9169 -18.5527 1.09493 30
32.9204 -18.5596 1.1608 35
32.904 -18.5099 1.22687 36
32.8492 -18.6299 1.29499 33
32.8704 -18.4728 1.35911 37
32.8546 -18.6049 1.42641 23
30.3192 -17.1387 1.53747 35
nan nan nan nan
nan nan nan nan
30.0966 -16.957 1.71506 28
30.197 -16.9832 1.77415 33
33.0183 -18.7295 1.82108 20
30.4298 -17.091 1.89381 36
30.4452 -17.2371 1.9568 32
33.2028 -18.6276 2.01636 14
33.1942 -18.7345 2.08468 1
30.2999 -17.0566 2.13738 12
33.3571 -18.7904 2.218 28
29.9834 -16.8527 2.25547 35
29.9121 -16.9576 2.31773 37
29.9704 -16.8227 2.37478 38
29.6118 -16.7551 2.43256 34
29.5019 -16.5412 2.48653 37
29.6477 -16.686 2.60908 29
29.8147 -16.7613 2.73136 35
29.3019 -16.4441 2.83529 37
28.7098 -16.0938 2.93279 35
28.8289 -16.3121 3.34604 38
29.1172 -16.3731 3.93971 38
29.7382 -16.7024 4.90684 20
28.806 -16.1431 5.68577 31
39.675 -22.1191 9.03667 38
39.6641 -22.304 11.0996 40
39.7581 -22.0742 14.0154 39
3.1577 -1.83385 0.303066 4
3.2504 -1.86768 0.668813 1
6.07889 -3.50442 -0.0279994 11
7.34867 -4.1967 -0.0583224 11
8.58692 -4.92402 -0.0795531 11
9.75531 -5.6019 -0.0797369 11
11.1646 -6.39363 -0.126214 11
12.4832 -7.13949 -0.149321 11
13.9797 -8.00594 -0.208089 10
15.6905 -8.93752 -0.316688 36
15.7521 -9.02396 -0.231849 40
15.7296 -8.97965 -0.115227 43
15.726 -8.97899 -0.0156891 40
15.7229 -8.94796 0.0496296 43
15.7349 -8.94005 0.112435 42
15.7029 -8.98962 0.177617 41
15.7065 -8.966 0.241711 42
15.7243 -8.94685 0.304258 37
15.7488 -8.94597 0.368866 42
15.7113 -8.99257 0.431238 41
15.7661 -8.99814 0.49016 23
16.3213 -9.26209 0.50393 28
16.4308 -9.33173 0.559919 29
16.477 -9.402 0.621397 34
16.3312 -9.31494 0.699571 31
16.3388 -9.27007 0.765605 25
21.3658 -12.1284 0.470153 43
16.61 -9.47595 0.877975 11
nan nan nan nan
21.2891 -12.1676 0.6889 35
21.2626 -12.0569 0.734232 42
21.2773 -12.1466 0.775412 20
21.5137 -12.2098 0.805585 3
21.5342 -12.2689 0.847382 1
21.7171 -12.386 0.881144 3
21.8195 -12.4221 0.91983 3
nan nan nan nan
nan nan nan nan
22.0985 -12.5284 1.03929 3
nan nan nan nan
nan nan nan nan
32.7892 -18.6678 0.770028 35
32.9431 -18.7756 0.830437 29
33.2545 -18.9196 0.886097 25
32.7903 -18.6983 0.967662 23
32.8321 -18.6891 1.03218 31
32.8172 -18.6477 1.09837 34
32.8164 -18.6522 1.16428 32
32.8392 -18.6246 1.22934 36
32.771 -18.737 1.29775 35
32.846 -18.6178 1.36086 38
32.8199 -18.7369 1.42835 30
32.8612 -18.7272 1.49991 36
32.8814 -18.7134 1.55875 30
32.9733 -18.725 1.62321 20
32.9152 -18.6969 1.68996 33
30.1202 -17.0787 1.77655 28
32.9397 -18.8372 1.82364 40
33.0078 -18.6981 1.88694 12
30.45 -17.3804 1.959 20
30.6482 -17.3354 2.01764 29
30.1561 -17.1588 2.07959 1
30.2402 -17.1623 2.13966 31
30.361 -17.2423 2.20131 13
29.9374 -16.9646 2.25783 32
29.818 -17.0421 2.31961 40
29.9521 -16.957 2.37769 37
29.8093 -17.0045 2.43854 36
29.309 -16.5678 2.48652 37
nan nan nan nan
29.4038 -16.6655 2.72494 25
29.2327 -16.5464 2.83735 36
28.6404 -16.1865 2.93452 25
nan nan nan nan
29.0424 -16.4647 3.94074 37
28.2576 -16.0007 4.76969 32
28.7579 -16.2483 5.68904 30
39.6709 -22.3076 9.05359 39
39.6666 -22.4878 11.1212 37
39.7899 -22.2737 14.0516 39
3.13184 -1.83349 0.31394 4
nan nan nan nan
6.05965 -3.51875 -0.024792 12
7.32987 -4.21998 -0.0565796 11
8.56893 -4.95555 -0.0788708 11
9.73679 -5.6343 -0.0790353 17
11.1466 -6.43511 -0.126188 14
12.4455 -7.17569 -0.146152 28
14.0504 -8.11174 -0.222693 10
15.6938 -9.01208 -0.320606 36
15.7581 -9.09333 -0.23567 41
15.7312 -9.05714 -0.118631 43
15.7463 -9.06365 -0.0211561 41
15.7434 -9.03255 0.044368 42
15.7383 -9.01477 0.109462 42
15.7092 -9.05885 0.174666 41
15.7097 -9.04069 0.239016 42
15.7276 -9.02156 0.301702 37
15.7478 -9.01828 0.366906 42
15.7219 -9.06433 0.428411 41
15.7347 -9.05317 0.491352 23
16.2847 -9.31658 0.50556 32
16.4026 -9.39156 0.560778 34
16.4501 -9.45912 0.622216 25
16.3073 -9.37691 0.700113 30
16.2761 -9.30975 0.769139 25
16.4642 -9.42112 0.821154 20
16.7041 -9.60314 0.870646 14
21.2673 -12.2312 0.646573 33
21.3115 -12.2792 0.686496 36
21.2465 -12.146 0.73428 35
21.2781 -12.2359 0.774607 20
21.471 -12.2849 0.807208 4
nan nan nan nan
21.7106 -12.4779 0.88091 3
nan nan nan nan
nan nan nan nan
nan nan nan nan
22.2108 -12.6947 1.03414 4
32.5746 -18.7222 0.646923 10
nan nan nan nan
32.5689 -18.7008 0.778335 33
32.6813 -18.7703 0.8399 30
32.6681 -18.7372 0.906088 35
32.6859 -18.7903 0.971371 29
32.6973 -18.7638 1.03671 28
32.7173 -18.7423 1.1018 33
32.7414 -18.7534 1.16696 32
32.7654 -18.7342 1.23203 34
32.6978 -18.8545 1.30044 33
32.7939 -18.7398 1.36308 37
32.7543 -18.8513 1.43083 36
32.7783 -18.8318 1.50266 38
32.8072 -18.8231 1.56135 26
32.8557 -18.8102 1.6263 34
32.8574 -18.8084 1.69228 20
30.234 -17.283 1.77753 11
32.8574 -18.9503 1.82632 12
32.9857 -18.838 1.88928 30
32.9461 -18.9578 1.95782 17
33.0763 -18.8614 2.02135 13
30.2435 -17.3486 2.08225 1
30.1237 -17.2354 2.14168 13
30.2777 -17.328 2.20331 31
29.878 -17.069 2.26009 37
28.785 -16.592 2.31156 29
nan nan nan nan
28.8049 -16.5651 2.42686 29
29.1207 -16.5957 2.48656 34
28.9924 -16.5847 2.6024 36
30.7428 -17.5667 2.7617 14
nan nan nan nan
30.4987 -17.3775 2.99933 14
nan nan nan nan
nan nan nan nan
28.2058 -16.1016 4.77224 37
28.6016 -16.2918 5.67843 37
39.6784 -22.4943 9.0719 38
39.7023 -22.6914 11.1507 33
39.7997 -22.4618 14.0814 39
3.12551 -1.84448 0.314178 4
nan nan nan nan
6.04682 -3.54102 -0.0243084 13
7.31521 -4.24563 -0.0560241 12
8.55169 -4.98551 -0.0782204 10
9.71816 -5.66663 -0.0783331 11
11.1156 -6.4691 -0.123707 11
12.3777 -7.19433 -0.137797 25
14.1549 -8.23807 -0.242726 10
15.7053 -9.09175 -0.325794 36
15.7548 -9.16859 -0.238695 41
15.7339 -9.13201 -0.122088 42
15.7491 -9.13859 -0.0243974 41
15.7421 -9.10495 0.0418003 43
15.7412 -9.08962 0.106494 41
15.7135 -9.13094 0.17178 41
15.7126 -9.11552 0.236328 42
15.7306 -9.09641 0.299152 38
15.7465 -9.09069 0.364952 43
15.7263 -9.13648 0.426082 39
15.7246 -9.12059 0.490467 30
16.3989 -9.4581 0.493254 33
16.3741 -9.4513 0.561638 35
16.3238 -9.45867 0.63139 26
16.3177 -9.45883 0.697891 28
16.2565 -9.37403 0.769384 20
16.3924 -9.45612 0.825199 20
nan nan nan nan
21.2504 -12.3204 0.646528 29
21.2988 -12.3711 0.686241 33
21.1867 -12.2101 0.736922 39
nan nan nan nan
21.5059 -12.4047 0.804487 5
17.1842 -9.955 1.07996 4
21.708 -12.5724 0.880458 9
32.7455 -18.9453 0.375273 23
21.8407 -12.6601 0.961701 9
32.4984 -18.8651 0.525088 31
22.0929 -12.7298 1.03903 4
32.5058 -18.8415 0.649514 31
32.6348 -18.8224 0.710084 35
32.5727 -18.8544 0.778197 34
32.5801 -18.856 0.843638 34
32.5939 -18.8462 0.908852 34
32.5942 -18.8893 0.974666 31
32.6101 -18.8654 1.03983 35
32.6387 -18.8489 1.10464 34
32.6671 -18.8626 1.16966 34
32.6955 -18.846 1.2346 36
32.6319 -18.9685 1.30292 36
32.7273 -18.846 1.36552 37
32.6841 -18.963 1.43339 35
32.7037 -18.9411 1.50527 37
32.7327 -18.9325 1.56395 39
32.7466 -18.8997 1.62928 40
32.8002 -18.928 1.69469 34
30.1908 -17.3984 1.77969 11
32.8334 -19.0818 1.82848 33
32.9794 -18.9797 1.89145 17
32.923 -19.0977 1.96026 32
29.7982 -17.1302 2.02179 25
30.1525 -17.4365 2.08446 3
30.059 -17.3379 2.14394 23
30.2083 -17.4285 2.20554 11
29.8183 -17.1732 2.26235 32
28.6995 -16.6698 2.3133 32
28.7394 -16.5299 2.36813 34
28.7383 -16.6605 2.42892 36
29.0236 -16.6748 2.4881 28
28.9559 -16.6982 2.60504 25
29.2 -16.8204 2.72723 14
29.414 -16.9143 2.85015 34
30.5852 -17.5684 3.00647 28
28.1117 -16.2972 3.32688 36
nan nan nan nan
28.2054 -16.2321 4.77991 36
28.5443 -16.3914 5.68059 37
39.7191 -22.6916 9.09544 38
39.6947 -22.871 11.1704 34
39.8129 -22.6527 14.1126 38
3.11914 -1.85545 0.314417 4
3.12952 -1.84205 0.711792 3
6.0304 -3.55975 -0.0224521 11
7.30045 -4.27122 -0.0554683 12
8.53013 -5.01294 -0.0765378 14
9.69942 -5.6989 -0.0776308 17
11.1101 -6.51792 -0.126131 13
12.3057 -7.21008 -0.128707 12
14.2629 -8.36773 -0.26342 10
15.7164 -9.1716 -0.330974 38
15.7443 -9.23617 -0.240552 40
15.7364 -9.20702 -0.12554 41
15.7344 -9.20362 -0.0254169 41
15.7317 -9.17243 0.0403113 41
15.7439 -9.1646 0.103533 41
15.7176 -9.20317 0.1689 41
15.7151 -9.19047 0.233645 42
15.7289 -9.16888 0.297074 39
15.7449 -9.1632 0.363002 35
15.7261 -9.20624 0.424191 40
15.7143 -9.18806 0.489587 30
16.3702 -9.51785 0.4941 25
nan nan nan nan
16.2752 -9.50274 0.634019 29
16.2631 -9.5032 0.700857 28
16.2324 -9.43577 0.769961 14
17.1789 -9.99013 0.7674 31
17.0885 -9.97542 0.842559 25
21.2548 -12.4223 0.64511 9
17.0978 -10.0109 0.945429 11
21.1829 -12.3066 0.736202 28
16.9913 -9.93264 1.02096 5
21.4971 -12.4998 0.80419 9
17.1969 -10.0426 1.07871 5
nan nan nan nan
32.6577 -19.047 0.378832 20
32.4851 -18.9816 0.452965 28
32.4842 -19.0087 0.525202 30
32.5294 -18.8957 0.582765 23
32.4745 -18.975 0.650544 30
32.5172 -18.9061 0.714614 31
32.4852 -18.9554 0.781482 31
32.4915 -18.9489 0.846909 32
32.5064 -18.9473 0.91205 33
32.4936 -18.9828 0.978231 34
32.5225 -18.9665 1.04294 35
32.5598 -18.9552 1.10747 36
32.5795 -18.964 1.17269 37
32.6123 -18.9499 1.23749 36
32.5655 -19.0823 1.3054 38
32.6646 -18.9544 1.36787 38
32.6134 -19.0745 1.43595 38
32.6331 -19.0526 1.50782 39
32.6708 -19.0491 1.56637 34
32.6718 -19.0089 1.63186 41
32.7642 -19.06 1.69689 37
32.8751 -19.0988 1.76185 34
32.7795 -19.2038 1.83091 40
32.925 -19.0939 1.8938 36
32.9166 -19.2479 1.96269 9
32.9611 -19.1018 2.02636 28
30.0655 -17.5265 2.08667 1
29.994 -17.4402 2.1462 11
30.143 -17.5313 2.20781 13
29.8057 -17.3047 2.26503 30
28.6109 -16.7521 2.31516 6
28.6758 -16.62 2.37009 28
28.6713 -16.7556 2.43097 32
28.7835 -16.6707 2.48724 28
28.7548 -16.7162 2.60425 36
28.925 -16.7966 2.72404 38
29.2063 -16.924 2.84788 29
29.5462 -17.109 2.97653 12
28.0417 -16.3876 3.32841 37
28.3502 -16.4668 3.91239 37
28.1614 -16.3379 4.78332 28
28.4868 -16.4907 5.68275 34
39.7203 -22.8673 9.1121 38
39.7201 -23.0706 11.1979 35
39.8294 -22.8463 14.145 39
3.11273 -1.8664 0.314656 4
3.11909 -1.85061 0.71372 3
6.01742 -3.58191 -0.0219684 12
7.28979 -4.29923 -0.0560987 12
8.50935 -5.03879 -0.0748882 11
9.68057 -5.73112 -0.0769279 11
11.0789 -6.55173 -0.12365 12
12.2337 -7.22541 -0.119624 5
14.4042 -8.51842 -0.289531 10
15.7229 -9.24913 -0.33551 38
15.7617 -9.32423 -0.24662 40
15.7444 -9.28192 -0.129626 41
15.7365 -9.27875 -0.0286474 41
15.7383 -9.25004 0.0366806 41
15.7505 -9.24223 0.100058 42
15.7214 -9.27552 0.166025 41
15.7131 -9.26302 0.231452 42
15.7355 -9.24649 0.294069 39
15.7386 -9.23329 0.361507 37
15.7256 -9.27611 0.422305 39
15.695 -9.2505 0.48954 33
16.367 -9.59263 0.492562 32
16.3724 -9.60333 0.558421 43
16.3855 -9.64013 0.623232 29
16.3159 -9.61058 0.695194 31
nan nan nan nan
17.1268 -10.04 0.769948 25
17.1457 -10.0852 0.837644 30
17.0475 -10.0435 0.913293 11
17.4068 -10.2736 0.925405 13
nan nan nan nan
16.942 -9.98727 1.02306 5
nan nan nan nan
33.0322 -19.4334 0.225328 13
32.5874 -19.1614 0.31543 17
32.6126 -19.1735 0.380245 23
32.522 -19.1558 0.450504 25
32.478 -19.1576 0.524932 23
32.4332 -18.9915 0.586556 30
32.4435 -19.1168 0.651525 32
32.4855 -19.0397 0.715718 31
32.4739 -19.0935 0.781886 34
32.4803 -19.0869 0.847417 35
32.4918 -19.091 0.912787 34
32.4832 -19.1291 0.978939 35
32.5078 -19.1103 1.04389 32
32.5366 -19.094 1.10876 35
32.5573 -19.1111 1.17408 35
32.5934 -19.0915 1.23885 35
32.5322 -19.208 1.30712 36
32.6319 -19.0803 1.36964 36
32.5854 -19.211 1.43776 36
32.601 -19.1867 1.50978 38
32.6343 -19.1808 1.56846 37
32.6959 -19.1759 1.63332 39
32.7157 -19.1926 1.69931 38
32.791 -19.2033 1.76447 33
32.7501 -19.3327 1.8331 40
32.8744 -19.2105 1.89613 37
32.8363 -19.355 1.96521 30
30.183 -17.6329 2.02671 23
30.5128 -17.9302 2.09043 3
30.2262 -17.7167 2.14991 36
30.0958 -17.6518 2.21033 20
nan nan nan nan
33.1158 -19.5368 2.3675 32
33.223 -19.4025 2.43163 14
28.5911 -16.8429 2.43283 29
28.5265 -16.6551 2.48605 36
28.5971 -16.7583 2.60435 39
28.8446 -16.8848 2.7257 29
29.0378 -16.9552 2.84672 33
29.3999 -17.1616 2.97592 32
nan nan nan nan
28.258 -16.5454 3.91221 36
28.0912 -16.4284 4.78418 38
28.4975 -16.63 5.69382 37
39.7508 -23.0605 9.13414 40
39.7362 -23.2657 11.2236 35
39.8367 -23.0354 14.1749 35
3.09854 -1.87264 0.319147 4
3.11671 -1.86396 0.71227 3
6.00087 -3.6005 -0.0201125 12
7.27485 -4.32473 -0.055542 12
8.49182 -5.06854 -0.0742373 11
9.65961 -5.76664 -0.0761507 12
11.0518 -6.58792 -0.121986 11
12.183 -7.25297 -0.114247 5
14.5745 -8.68795 -0.320374 10
15.729 -9.32681 -0.34004 39
15.7803 -9.40979 -0.25274 42
15.759 -9.36479 -0.134807 42
15.7468 -9.35909 -0.032979 41
15.7445 -9.3278 0.0330564 42
15.7568 -9.32002 0.0965902 40
15.7259 -9.35604 0.162775 41
15.715 -9.33822 0.228781 42
15.7375 -9.32172 0.291536 43
15.745 -9.31105 0.358671 40
15.7216 -9.35156 0.420544 41
15.7013 -9.32818 0.487009 36
16.3335 -9.64976 0.493809 32
16.3817 -9.68586 0.555872 28
16.3947 -9.72275 0.62086 32
16.3166 -9.68789 0.693681 34
16.6431 -9.83064 0.736073 23
17.023 -10.0591 0.776215 29
17.1491 -10.1679 0.836319 20
17.2142 -10.2228 0.901668 13
nan nan nan nan
17.0419 -10.0602 0.982578 11
nan nan nan nan
17.2476 -10.1899 1.04014 5
17.313 -10.2691 1.07131 11
32.6063 -19.326 0.31346 20
nan nan nan nan
16.6725 -9.89911 1.20731 6
32.5441 -19.35 0.521347 28
32.4184 -19.1352 0.58677 29
32.4927 -19.2989 0.649166 29
32.4964 -19.1988 0.715123 30
32.4759 -19.2475 0.781775 31
32.4866 -19.2435 0.847293 31
32.511 -19.2553 0.912378 28
32.4894 -19.2857 0.979114 33
32.5184 -19.2696 1.04409 31
32.5473 -19.2533 1.10911 32
32.5549 -19.2628 1.17492 33
32.5869 -19.2407 1.23993 33
32.5295 -19.3598 1.30823 35
32.6254 -19.2296 1.37096 33
32.5741 -19.3579 1.43928 36
32.6026 -19.3412 1.51123 36
32.6274 -19.3303 1.57015 37
32.6632 -19.3103 1.63543 38
32.6528 -19.3092 1.70176 38
32.7324 -19.3227 1.76691 40
32.82 -19.5287 1.8349 38
32.9494 -19.4089 1.89819 33
32.8631 -19.5257 1.96761 14
30.0222 -17.6798 2.02892 20
30.3941 -18.0035 2.09259 1
30.1943 -17.8399 2.15236 34
30.0555 -17.7694 2.21278 31
30.2439 -17.8427 2.2746 23
30.0348 -17.8611 2.33652 20
30.0183 -17.672 2.39331 33
29.9121 -17.7619 2.45594 8
28.4682 -16.7546 2.48823 31
28.4996 -16.8351 2.6057 25
28.5874 -16.8685 2.7229 23
29.0344 -17.0894 2.85057 34
28.9305 -17.0232 2.96453 36
28.011 -16.6264 3.33646 13
28.1742 -16.6286 3.91261 17
28.3253 -16.6982 4.81533 38
28.4348 -16.7267 5.69543 36
39.7678 -23.2562 9.15482 40
39.7386 -23.4442 11.2451 36
39.8723 -23.242 14.2137 35
3.08435 -1.8788 0.323636 4
3.04176 -1.83354 0.741217 3
5.99659 -3.62648 -0.0224409 11
7.25981 -4.35018 -0.054985 13
8.48258 -5.10328 -0.0756481 11
9.64796 -5.80548 -0.0772321 11
11.0343 -6.62715 -0.121998 11
12.1111 -7.26755 -0.105176 5
14.7608 -8.86898 -0.353902 9
15.7305 -9.40211 -0.343927 42
15.79 -9.49047 -0.257631 42
15.7646 -9.44279 -0.138819 42
15.7611 -9.44216 -0.0378561 42
15.7589 -9.41082 0.0283672 42
15.7712 -9.40306 0.0920916 42
15.7402 -9.43908 0.15847 41
15.7293 -9.42121 0.224665 42
15.7477 -9.40219 0.288077 40
15.7552 -9.39152 0.355394 38
15.7317 -9.43205 0.417434 40
15.7072 -9.40603 0.484485 36
16.2998 -9.70676 0.495057 34
16.4764 -9.81963 0.545743 34
16.3651 -9.78253 0.621752 33
16.2871 -9.7474 0.694586 28
16.5701 -9.86575 0.740289 20
16.8292 -10.024 0.788977 29
nan nan nan nan
16.326 -9.7726 0.957655 10
nan nan nan nan
nan nan nan nan
nan nan nan nan
17.2077 -10.2475 1.0417 4
16.5268 -9.88107 1.11309 10
nan nan nan nan
16.5046 -9.85606 1.1815 10
32.542 -19.4748 0.448091 14
16.4617 -9.8654 1.25378 5
32.4545 -19.3096 0.58474 23
16.726 -10.012 1.3064 6
32.4507 -19.3249 0.716755 24
16.6757 -9.96412 1.37631 6
32.4107 -19.3517 0.850083 31
32.4943 -19.3912 0.913156 37
32.4648 -19.4247 0.980249 37
32.5068 -19.4163 1.04493 37
32.5272 -19.395 1.1103 37
32.5519 -19.4148 1.17578 37
32.5969 -19.4004 1.24061 37
32.5389 -19.5195 1.30907 37
32.6441 -19.3945 1.37179 37
32.5998 -19.5197 1.4401 37
32.6293 -19.5114 1.51231 36
32.6542 -19.5004 1.5714 38
32.6987 -19.4856 1.63677 36
32.6926 -19.4871 1.70327 38
32.7851 -19.5085 1.76855 38
32.8331 -19.692 1.837 32
32.8685 -19.5161 1.90074 23
30.5887 -18.312 1.97221 31
30.3386 -18.009 2.03157 29
29.9319 -17.8711 2.0937 1
30.1448 -17.9528 2.15474 33
30.4013 -18.1174 2.21797 32
30.3276 -18.035 2.27824 29
21.039 -12.6124 2.23856 4
28.5547 -16.945 2.3772 11
28.4457 -17.019 2.43663 28
28.4095 -16.8538 2.4904 23
28.4536 -16.9421 2.60816 20
38.1643 -22.7009 2.9694 31
28.7295 -17.0452 2.84559 25
38.169 -22.6388 3.27756 30
27.9471 -16.714 3.33809 38
28.1116 -16.7242 3.91447 33
28.4937 -16.9318 4.84012 33
nan nan nan nan
39.7754 -23.4472 9.17397 38
39.7698 -23.6406 11.2736 36
39.8737 -23.4294 14.2424 38
3.074 -1.88726 0.325999 4
3.06355 -1.86132 0.729632 4
5.9799 -3.64497 -0.0205848 13
7.24469 -4.37558 -0.0544276 13
8.46901 -5.13547 -0.0760267 14
9.62775 -5.8392 -0.0764906 17
11.01 -6.66763 -0.121108 14
12.0477 -7.28683 -0.0975897 6
14.8781 -9.01036 -0.376533 11
15.7275 -9.47497 -0.347172 41
15.7909 -9.56619 -0.261296 43
15.7657 -9.51837 -0.142246 43
15.7664 -9.52032 -0.0416203 42
15.7602 -9.48636 0.025292 42
15.7768 -9.48119 0.0886371 42
15.7455 -9.51719 0.155173 41
15.7391 -9.50184 0.22104 41
15.7576 -9.48283 0.284624 40
15.7694 -9.47474 0.351676 38
15.7499 -9.51787 0.41347 41
15.7298 -9.49433 0.480312 36
nan nan nan nan
16.5361 -9.93363 0.538666 32
nan nan nan nan
16.2573 -9.80681 0.695491 28
16.4929 -9.89789 0.744827 31
16.8284 -10.1033 0.787791 29
16.8983 -10.1793 0.851204 29
nan nan nan nan
nan nan nan nan
nan nan nan nan
nan nan nan nan
17.1762 -10.3101 1.04278 12
16.4708 -9.92583 1.11552 12
16.4705 -9.91976 1.14915 5
16.4599 -9.91135 1.18326 14
16.3849 -9.88371 1.2203 8
16.6368 -10.0494 1.24549 9
32.4256 -19.4459 0.585539 23
32.4129 -19.5589 0.651822 29
32.5074 -19.5127 0.714312 28
16.6452 -10.0249 1.37743 6
32.3902 -19.4931 0.850891 32
32.4702 -19.5385 0.914191 33
32.4525 -19.5715 0.980986 24
32.4988 -19.5658 1.04565 30
32.5279 -19.5496 1.11091 31
32.5397 -19.5618 1.17686 31
32.5762 -19.5424 1.242 28
32.5177 -19.6615 1.31057 37
32.6148 -19.5314 1.37354 33
32.5546 -19.6629 1.44233 39
32.5825 -19.638 1.51449 38
32.6074 -19.6272 1.57362 39
32.6434 -19.6074 1.63913 39
32.6544 -19.6191 1.70551 40
32.8197 -19.6845 1.77033 36
32.7984 -19.8272 1.83936 35
32.8861 -19.6821 1.903 12
30.6124 -18.4862 1.97471 36
30.6446 -18.3356 2.03427 35
30.0107 -18.0605 2.09644 1
30.2748 -18.1737 2.15804 25
nan nan nan nan
21.0448 -12.6131 2.1958 8
20.9906 -12.6832 2.24013 12
28.3881 -16.9803 2.37796 32
20.9877 -12.667 2.32526 23
28.3548 -16.9554 2.49265 35
28.4114 -17.0516 2.6107 31
38.2348 -22.9239 2.97614 11
28.5882 -17.0966 2.84538 28
28.5578 -17.0734 2.96045 30
27.8741 -16.8159 3.34004 20
28.0487 -16.8195 3.91633 20
28.4471 -17.0387 4.84358 31
nan nan nan nan
29.3078 -17.4155 7.29855 29
39.7665 -23.8551 11.2987 34
39.8992 -23.632 14.2787 37
3.07518 -1.90281 0.321987 4
3.06111 -1.87451 0.72818 4
5.96316 -3.66339 -0.0187292 12
7.22534 -4.39839 -0.0526848 13
8.45024 -5.16657 -0.0753415 12
9.59801 -5.86941 -0.0738904 11
10.9814 -6.70546 -0.119402 11
11.997 -7.31348 -0.0922267 10
14.9989 -9.15525 -0.399819 11
15.7326 -9.55307 -0.351683 41
15.7956 -9.64462 -0.265563 43
15.769 -9.59941 -0.146185 39
15.7671 -9.59604 -0.0448258 42
15.7653 -9.56459 0.0216877 41
15.7777 -9.55689 0.0857068 41
15.743 -9.59837 0.152505 41
15.7441 -9.58007 0.217906 40
15.7628 -9.56108 0.281645 40
15.7704 -9.55043 0.349308 37
15.7559 -9.60426 0.410497 40
15.7265 -9.56736 0.478629 37
16.573 -10.0269 0.465861 29
16.7189 -10.1231 0.520621 25
16.698 -10.1483 0.590075 25
16.5129 -10.0398 0.673366 28
16.5693 -10.0226 0.737604 25
16.4558 -9.95782 0.813503 32
16.7952 -10.2053 0.857006 30
16.3343 -9.9331 0.955228 32
16.4432 -10.017 0.981659 12
16.312 -9.86103 1.02399 30
16.3532 -9.95034 1.05427 7
16.495 -9.9795 1.08025 20
