# .PCD v0.7 - Point Cloud Data file format
VERSION 0.7
FIELDS x y z intensity
SIZE 4 4 4 4
TYPE F F F F
COUNT 1 1 1 1
WIDTH 1868
HEIGHT 1
VIEWPOINT 0 0 0 1 0 0 0
POINTS 1868
DATA ascii
20.8156 5.68326 -0.444558 11
21.6339 5.92617 -0.462535 9
22.5735 6.21643 -0.488501 10
23.6662 6.53389 -0.519076 11
24.5184 6.6942 -0.52211 10
25.6398 7.02305 -0.544998 10
26.8597 7.42622 -0.570841 10
28.4554 7.85465 -0.619694 9
29.8362 8.1853 -0.636638 9
31.6444 8.67319 -0.68126 10
33.5702 9.28039 -0.725088 11
36.5372 10.0905 -0.8331 11
38.9926 10.6973 -0.879865 9
42.827 11.7294 -1.00731 11
45.8403 12.5137 -1.13481 11
46.8707 12.9644 -1.12497 10
51.2026 14.001 -1.31677 11
52.9626 14.6237 -1.33859 11
55.007 15.0987 -1.36538 24
57.0077 15.6396 -1.38425 12
59.7993 16.4304 -1.4423 10
nan nan nan nan
nan nan nan nan
nan nan nan nan
56.0861 15.3455 -0.819833 89
55.8866 15.4296 -0.711689 5
58.1609 15.9743 -0.714845 6
56.106 15.4015 -0.51691 4
62.9924 17.3183 -0.712711 33
62.9325 17.2334 -0.59463 93
63.0397 17.3125 -0.485896 44
nan nan nan nan
nan nan nan nan
nan nan nan nan
66.0162 18.007 -0.122827 11
82.9075 22.9451 -0.522861 12
83.1747 22.7251 -0.375033 17
85.2496 23.3591 -0.265804 28
85.1822 23.3913 -0.126097 17
85.1981 23.4786 0.0263638 28
85.1805 23.4606 0.181211 28
85.2192 23.5382 0.333617 21
77.7345 21.2024 0.625046 24
77.5433 21.4732 0.76395 41
77.5854 21.1962 0.907872 39
77.5622 21.513 1.04405 38
77.46 21.2691 1.18844 4
76.9514 21.2189 1.33187 42
77.094 21.2319 1.47048 24
77.0755 21.3019 1.6092 14
77.2068 21.0712 1.75134 35
76.9371 21.318 1.88783 35
77.0684 21.0677 2.03018 39
77.439 21.4916 2.16712 33
77.8547 21.4662 2.45122 39
78.4943 21.6775 2.73876 30
78.0012 21.6111 3.01601 43
78.2968 21.7279 3.30319 16
77.3374 21.1379 4.26892 34
77.4455 21.3601 5.67504 33
85.3618 23.5709 8.45409 21
85.4079 23.6457 10.7947 15
85.448 23.8382 14.634 14
85.6744 23.5467 18.6393 25
nan nan nan nan
nan nan nan nan
5.34081 1.43723 -0.0487456 13
6.69405 1.78861 -0.0955772 13
8.09103 2.19422 -0.148704 13
9.41071 2.53151 -0.173071 10
10.6972 2.8704 -0.189214 12
12.0262 3.23806 -0.216128 14
13.3241 3.59382 -0.236538 12
14.6745 3.94764 -0.273725 11
15.7066 4.26338 -0.291357 11
16.5324 4.44308 -0.318937 14
17.688 4.78127 -0.369126 12
18.6541 5.04016 -0.392738 9
19.3688 5.26178 -0.414924 10
20.2117 5.50513 -0.446895 12
20.8451 5.61306 -0.444851 11
21.6738 5.85571 -0.463855 11
22.6048 6.14011 -0.488657 9
23.737 6.46421 -0.523244 3
nan nan nan nan
20.2636 5.47426 -0.00742602 5
26.9192 7.34149 -0.572989 4
nan nan nan nan
nan nan nan nan
20.3504 5.50112 0.280011 1
nan nan nan nan
36.5339 9.95228 -0.828655 10
39.0443 10.5649 -0.87937 9
42.8582 11.5771 -1.00491 11
44.4819 11.9761 -1.03711 11
46.8725 12.7888 -1.12021 10
51.3091 13.8377 -1.31846 11
53.0713 14.4544 -1.34011 12
55.3438 14.9835 -1.38056 29
57.2693 15.4965 -1.39426 15
61.514 16.6707 -1.53528 12
nan nan nan nan
nan nan nan nan
nan nan nan nan
nan nan nan nan
58.0365 15.8051 -0.811132 8
62.9941 17.0657 -0.93545 4
nan nan nan nan
63.0333 17.093 -0.70936 18
nan nan nan nan
nan nan nan nan
nan nan nan nan
nan nan nan nan
nan nan nan nan
66.0191 17.748 -0.11803 12
83.0498 22.6726 -0.521455 14
85.2902 22.9835 -0.429793 15
85.3066 23.0549 -0.261748 25
77.2206 20.9154 0.0778347 24
77.2771 21.0059 0.214938 39
77.5289 21.0625 0.349534 27
77.5064 21.1172 0.48924 24
77.4147 20.7961 0.635555 43
77.3574 21.1312 0.771193 37
77.6638 20.9266 0.910915 14
83.4575 22.8348 0.975505 12
83.4455 22.5997 1.1297 4
76.9044 20.9173 1.33599 41
77.1725 20.964 1.47353 36
77.1349 21.0288 1.61235 34
77.2968 20.7772 1.75472 35
77.2619 21.1179 1.89054 35
77.3828 20.8637 2.03336 13
78.1404 21.3929 2.17157 34
78.1849 21.2639 2.45582 39
78.1353 21.2852 2.73781 36
77.4492 21.1674 3.01096 27
77.3402 21.1721 3.28913 29
78.0222 21.0183 4.29002 16
77.5724 21.1042 5.68065 36
85.4192 23.2665 8.45569 15
85.4462 23.3361 10.7937 16
85.5014 23.5325 14.6331 13
85.7213 23.223 18.6356 15
nan nan nan nan
nan nan nan nan
5.3459 1.4185 -0.0485306 22
6.70036 1.76515 -0.0953071 16
8.09875 2.16588 -0.148379 17
9.42476 2.49817 -0.173766 10
10.7073 2.83296 -0.188783 11
12.0376 3.19598 -0.215644 12
13.3319 3.54594 -0.235199 11
14.6883 3.89631 -0.273134 11
15.7167 4.20716 -0.290027 11
16.5432 4.38399 -0.317598 14
17.6049 4.68949 -0.354881 11
18.6861 4.97876 -0.393835 9
19.3872 5.19404 -0.414146 11
20.2549 5.44089 -0.448991 11
20.6678 5.48787 -0.420892 8
20.5224 5.4677 -0.32961 5
nan nan nan nan
nan nan nan nan
nan nan nan nan
20.2153 5.38549 6.91414e-05 8
nan nan nan nan
nan nan nan nan
nan nan nan nan
20.3166 5.41587 0.285314 3
20.3918 5.48482 0.351438 5
36.766 9.87762 -0.842479 6
38.9847 10.4028 -0.870692 10
42.8937 11.4261 -1.00285 12
44.5236 11.8207 -1.03532 11
46.9314 12.6289 -1.11929 10
51.1933 13.6148 -1.3058 10
53.1649 14.2806 -1.34071 11
55.5094 14.81 -1.385 29
57.4727 15.3363 -1.40082 21
61.5817 16.4584 -1.53337 13
nan nan nan nan
58.7374 15.604 -1.14434 5
nan nan nan nan
58.3157 15.5184 -0.921866 4
58.2844 15.6541 -0.818145 5
63.1095 16.8488 -0.935263 44
62.9546 16.8099 -0.814208 40
63.059 16.8638 -0.705375 11
nan nan nan nan
65.7418 17.5617 -0.582421 36
65.6366 17.5852 -0.460639 5
nan nan nan nan
66.0169 17.7414 -0.237223 13
67.1611 17.7913 -0.149775 11
83.1189 22.3799 -0.517831 28
85.3941 22.692 -0.427047 34
85.3481 22.7466 -0.257294 17
77.3174 20.6522 0.080338 14
77.2293 20.7036 0.220827 39
77.2882 20.7077 0.359323 37
77.2949 20.77 0.497897 42
77.3648 20.4789 0.641042 37
77.3776 20.8467 0.775137 42
77.6349 20.6284 0.915463 36
77.5803 20.9358 1.05185 42
77.5873 20.7227 1.19486 5
77.2184 20.7136 1.337 42
77.2501 20.6959 1.4766 33
77.3285 20.7919 1.61484 34
79.2719 20.9971 1.75199 33
79.4303 21.413 1.89069 30
80.1418 21.3079 2.03767 15
78.3546 21.1578 2.17501 30
nan nan nan nan
78.0594 20.9722 2.73953 36
77.5322 20.8997 3.01419 39
78.4513 21.1823 3.30953 37
77.9115 20.6972 4.28777 34
77.6937 20.8465 5.68606 34
85.4754 22.9621 8.4573 14
85.4931 23.029 10.7937 16
85.5632 23.2293 14.6337 14
85.763 22.9143 18.6316 15
nan nan nan nan
nan nan nan nan
5.35067 1.40068 -0.0483253 13
6.71122 1.74287 -0.0964911 14
8.10637 2.13751 -0.148052 14
9.42881 2.46393 -0.172292 10
10.7077 2.793 -0.186404 14
12.044 3.15261 -0.214278 13
13.3443 3.49929 -0.234661 12
14.6972 3.84367 -0.271798 11
15.7355 4.1562 -0.290123 17
16.5585 4.32613 -0.316929 12
17.5877 4.6191 -0.349671 11
18.6987 4.91215 -0.392465 9
19.4092 5.13091 -0.414002 11
20.2787 5.37133 -0.448756 11
20.6581 5.40806 -0.416674 6
20.5175 5.38963 -0.32605 6
20.3389 5.37623 -0.232894 6
20.1227 5.32972 -0.13251 1
nan nan nan nan
20.1282 5.287 0.0113788 4
20.1209 5.34082 0.0833116 3
20.0579 5.31214 0.162635 1
20.1741 5.30693 0.226418 3
20.3402 5.34612 0.285727 4
20.3666 5.40561 0.35573 177
nan nan nan nan
39.6914 10.443 -0.918496 5
42.9556 11.29 -1.0029 11
44.5696 11.6663 -1.03384 11
47.0504 12.4935 -1.12263 10
50.9221 13.3524 -1.28316 10
53.3401 14.128 -1.34645 11
55.6671 14.644 -1.38923 31
57.6226 15.1609 -1.40421 30
61.6534 16.247 -1.53171 21
nan nan nan nan
63.1486 16.54 -1.37511 41
nan nan nan nan
63.1038 16.5565 -1.15662 12
nan nan nan nan
63.0183 16.5889 -0.925755 27
63.0178 16.5912 -0.811883 25
63.1321 16.6473 -0.703453 5
65.7839 17.2877 -0.697055 31
65.8028 17.332 -0.579768 39
65.6868 17.3775 -0.458077 110
65.9988 17.4256 -0.349849 41
66.0254 17.4967 -0.232764 7
82.7878 21.6227 -0.644986 14
82.6846 21.9536 -0.498989 36
85.4149 22.3785 -0.42195 15
85.3748 22.4507 -0.252743 31
85.3309 22.4737 -0.113538 21
85.3302 22.588 0.0386281 28
77.3262 20.4288 0.363156 13
77.3235 20.4885 0.501854 35
77.3743 20.2071 0.645033 15
77.276 20.5303 0.781002 36
77.3196 20.2559 0.923998 36
77.2326 20.5531 1.0601 35
77.2386 20.341 1.20235 4
77.2396 20.4594 1.34017 36
77.5152 20.4772 1.47841 29
77.5553 20.5629 1.61719 33
79.225 20.7038 1.75539 14
77.6635 20.6462 1.8964 17
77.7974 20.3941 2.03974 40
77.8965 20.7427 2.17697 20
77.8601 20.6221 2.45908 40
77.7357 20.5947 2.73892 14
77.6191 20.6328 3.0175 34
78.3556 20.8634 3.30986 24
77.8912 20.4012 4.28822 14
79.393 21.0059 5.76637 30
85.5354 22.6588 8.45928 15
85.5628 22.7283 10.7961 16
85.6144 22.9234 14.6329 14
85.8368 22.6143 18.6342 15
nan nan nan nan
nan nan nan nan
5.35563 1.38192 -0.0481081 16
6.71737 1.71935 -0.0962183 16
8.11389 2.10911 -0.147724 13
9.43746 2.43092 -0.17191 11
10.7175 2.75552 -0.185969 12
12.0545 3.11257 -0.213814 11
13.3607 3.45618 -0.234949 11
14.7202 3.79473 -0.272685 13
15.7548 4.10241 -0.290185 14
16.5544 4.26327 -0.313566 12
17.5943 4.5551 -0.347673 12
18.7342 4.85501 -0.394207 9
19.4464 5.06804 -0.41561 11
20.3119 5.30418 -0.449679 12
20.6625 5.3321 -0.414145 6
20.5209 5.31774 -0.323621 6
20.3625 5.30637 -0.2326 5
20.1269 5.2556 -0.130164 5
nan nan nan nan
20.0204 5.18769 0.0245501 1
20.0962 5.25914 0.0882607 3
20.0571 5.237 0.165215 3
20.1926 5.23642 0.227236 3
20.2373 5.24731 0.296691 3
20.2601 5.30163 0.366692 30
20.2625 5.29399 0.440148 3
20.6637 5.35826 0.485168 3
43.2923 11.225 -1.02217 10
nan nan nan nan
47.118 12.3354 -1.12233 10
51.8962 13.4142 -1.34089 11
53.5872 13.9933 -1.35671 11
21.6419 5.6101 0.687156 3
57.7526 14.9796 -1.40644 32
61.7023 16.0411 -1.52906 24
63.0769 16.3539 -1.49266 12
62.9837 16.2619 -1.36067 31
63.0062 16.4932 -1.26475 19
63.0501 16.3073 -1.1485 27
63.0271 16.4565 -1.03704 17
63.0421 16.36 -0.921631 30
63.0706 16.3698 -0.809114 15
63.3176 16.4717 -0.706613 4
65.8072 17.0606 -0.693135 40
65.8631 17.1021 -0.577102 41
65.755 17.1379 -0.455467 30
nan nan nan nan
79.402 20.7443 -0.680112 12
81.7498 21.0469 -0.606092 15
82.6207 21.6281 -0.491413 34
83.0257 21.4584 -0.348878 15
88.2018 22.8816 -0.32203 50
88.2683 22.9181 -0.180826 25
88.2857 23.0243 -0.0237045 13
84.5568 22.0233 0.214888 25
84.4951 22.0731 0.367562 25
84.5758 21.7731 0.523427 12
77.3714 20.2668 0.783744 17
77.4106 20.0056 0.926641 27
77.2858 20.293 1.06324 36
77.4834 20.1165 1.20368 4
78.7655 20.5549 1.33108 27
77.654 20.2241 1.48109 29
77.8298 20.3452 1.61932 29
77.9217 20.0728 1.76284 38
77.8802 20.4131 1.89934 39
77.9856 20.1674 2.0428 40
77.9358 20.4767 2.17989 38
78.0415 20.3645 2.46301 27
77.9716 20.3662 2.74362 36
77.7438 20.3758 3.02133 40
79.8023 20.9656 3.33591 11
78.1726 20.2128 4.29746 27
79.8039 20.8171 5.78563 12
nan nan nan nan
88.5291 23.1862 11.0963 12
88.5792 23.387 15.0621 13
nan nan nan nan
nan nan nan nan
nan nan nan nan
5.36053 1.36313 -0.0478899 13
6.7188 1.69464 -0.0944891 19
8.12132 2.08069 -0.147394 14
9.446 2.39788 -0.171525 11
10.7224 2.7168 -0.184559 11
12.0612 3.06706 -0.21242 13
13.4015 3.41675 -0.239216 12
14.7335 3.74324 -0.272085 11
15.7691 4.0473 -0.289545 12
16.5741 4.20659 -0.313564 12
17.6102 4.49357 -0.346957 12
18.7127 4.77968 -0.388522 10
19.4689 5.00128 -0.415417 12
20.3544 5.23935 -0.451758 12
20.8689 5.30763 -0.435274 6
20.7947 5.31119 -0.351726 5
20.3762 5.23394 -0.231244 5
20.1211 5.17904 -0.126795 5
nan nan nan nan
20.1109 5.13618 0.018216 4
20.0808 5.18019 0.0922915 3
20.0947 5.17185 0.164262 3
20.1433 5.14856 0.234 3
20.2025 5.16301 0.301991 1
20.2351 5.21962 0.371022 4
20.2133 5.20577 0.446183 3
20.5277 5.24651 0.497364 3
nan nan nan nan
20.8944 5.31381 0.584431 3
47.1077 12.1571 -1.11689 9
nan nan nan nan
nan nan nan nan
21.676 5.53819 0.687155 3
57.9789 14.8223 -1.41436 32
62.1284 15.9089 -1.54744 24
nan nan nan nan
63.0935 16.0554 -1.36094 37
63.0539 16.2706 -1.26169 41
63.1358 16.0944 -1.14738 31
63.1084 16.2425 -1.03564 6
63.1958 16.1645 -0.92355 11
63.1275 16.1495 -0.806549 9
65.7877 16.8571 -0.806872 37
65.821 16.8069 -0.688344 41
65.908 16.8684 -0.573856 36
81.6062 20.9647 -1.04216 7
81.6033 20.9364 -0.89434 12
81.6083 21.0165 -0.748864 17
81.6969 20.7294 -0.598749 12
81.6118 21.0598 -0.455403 17
81.6593 20.771 -0.304233 16
81.6167 20.8542 -0.142917 13
81.5925 20.881 -0.010524 15
81.5393 20.9613 0.13617 16
84.4831 21.6894 0.221489 6
84.5959 21.7842 0.370525 12
78.4876 19.9136 0.634348 14
77.6015 20.0378 0.784375 29
77.5692 19.7292 0.928969 34
77.5353 20.0695 1.06421 29
78.6139 20.1174 1.19595 4
78.1637 20.1067 1.33998 42
77.7968 19.9716 1.48376 27
77.8616 20.0634 1.62267 33
77.9962 19.802 1.766 38
77.9025 20.1286 1.90257 34
78.0528 19.8654 2.04629 33
77.8374 20.1607 2.18266 33
77.8603 20.0273 2.46468 41
78.0325 20.0915 2.7467 27
78.1435 20.1895 3.02881 34
78.5295 20.3386 3.31662 43
79.7946 20.3059 4.34638 12
77.6991 19.9789 5.68563 35
nan nan nan nan
nan nan nan nan
nan nan nan nan
nan nan nan nan
nan nan nan nan
nan nan nan nan
5.3699 1.34546 -0.0494184 12
6.72478 1.67109 -0.0942137 14
8.12394 2.05106 -0.145816 12
9.45442 2.3648 -0.171139 17
10.7272 2.67808 -0.183148 14
12.0719 3.02486 -0.211927 12
13.3895 3.36385 -0.23466 11
14.7418 3.6905 -0.270741 11
15.7881 3.99336 -0.2896 11
16.5936 4.14983 -0.313558 13
17.6307 4.43319 -0.34688 11
18.5706 4.67427 -0.367457 9
19.5008 4.93685 -0.416417 12
20.3775 5.16939 -0.451509 12
21.0802 5.283 -0.456945 11
nan nan nan nan
20.3848 5.16026 -0.229356 5
20.1151 5.10259 -0.123422 4
nan nan nan nan
20.0081 5.0355 0.0309471 4
20.0844 5.10631 0.0944868 5
20.0982 5.09794 0.166406 3
20.1419 5.07328 0.236519 3
20.1722 5.08022 0.306885 3
20.1566 5.12434 0.379638 3
20.2411 5.13758 0.446263 3
nan nan nan nan
nan nan nan nan
20.8403 5.22261 0.590213 3
nan nan nan nan
nan nan nan nan
21.7939 5.53102 0.641619 8
21.5113 5.41611 0.6992 4
nan nan nan nan
nan nan nan nan
nan nan nan nan
nan nan nan nan
63.0863 16.0441 -1.25787 39
63.1869 15.8726 -1.14456 10
63.1649 16.022 -1.03307 46
63.4651 15.9974 -0.930825 5
63.1837 15.9289 -0.803972 15
65.8123 16.6187 -0.802741 40
65.8697 16.5745 -0.68526 41
65.9714 16.6393 -0.571355 19
85.2635 21.5871 -1.17235 12
85.2998 21.5675 -1.01943 14
82.8487 21.0277 -0.784824 17
85.2743 21.3206 -0.706815 25
85.3612 21.7098 -0.562587 25
81.6599 20.483 -0.299148 13
81.5146 20.5252 -0.135006 16
81.2142 20.4824 0.00390279 13
nan nan nan nan
80.2985 20.3167 0.314506 24
81.517 20.6883 0.434657 7
78.5373 19.6346 0.637897 42
77.6953 19.773 0.787156 39
77.7313 19.4962 0.930644 24
77.7648 19.8395 1.06544 36
77.942 19.6558 1.20673 4
77.8263 19.7306 1.3466 43
77.9193 19.7135 1.48658 24
78.0475 19.8211 1.62528 29
78.2346 19.5721 1.76868 36
78.1758 19.9085 1.90549 34
78.1764 19.6211 2.04935 40
78.6388 20.0757 2.18755 24
77.7262 19.7038 2.46664 27
78.1069 19.8203 2.74992 36
78.2522 19.9265 3.03251 41
78.6338 20.0731 3.32038 34
79.5352 19.9447 4.33994 11
77.8844 19.7372 5.69431 33
79.9668 20.2911 8.03215 36
nan nan nan nan
nan nan nan nan
nan nan nan nan
nan nan nan nan
nan nan nan nan
5.37491 1.32569 -0.0491869 16
6.73068 1.64752 -0.0939372 16
8.13116 2.02261 -0.145483 13
9.46273 2.3317 -0.17075 12
10.7461 2.64288 -0.184652 11
12.0777 2.98143 -0.210553 11
13.4312 3.31942 -0.238865 12
14.7547 3.63893 -0.270136 12
15.8171 3.93896 -0.291016 17
16.6226 4.09535 -0.314893 12
17.6462 4.37153 -0.346157 12
18.5933 4.60402 -0.367234 8
19.437 4.84484 -0.405418 12
20.4148 5.10295 -0.452997 12
21.1083 5.21167 -0.457206 9
21.967 5.43918 -0.478158 6
nan nan nan nan
20.1136 5.02744 -0.120559 4
19.9804 4.93274 -0.0354364 38
19.9791 4.9466 0.0366113 4
20.0548 5.02051 0.0999386 3
20.1063 5.02527 0.168111 3
20.2273 5.01969 0.231408 8
20.1868 5.00147 0.308202 3
20.1512 5.04432 0.382451 5
20.2058 5.05355 0.451182 1
20.3462 5.04889 0.514994 3
20.6679 5.12035 0.566242 3
20.8391 5.145 0.592381 3
21.1481 5.29737 0.607535 4
21.3643 5.28569 0.633504 3
21.6824 5.4222 0.650673 8
21.564 5.34937 0.698027 1
21.5805 5.355 0.735873 3
21.6773 5.38864 0.768994 4
nan nan nan nan
21.6408 5.34664 0.853686 1
63.14 15.8115 -1.25491 10
63.5815 15.7358 -1.15885 4
nan nan nan nan
65.7457 16.3285 -1.03093 22
nan nan nan nan
65.8216 16.3767 -0.797981 44
65.9281 16.3202 -0.682091 39
66.0438 16.4125 -0.569218 10
78.9084 19.6707 -0.929538 12
85.0983 21.2007 -1.00616 17
85.2875 21.3299 -0.860887 31
85.5764 21.079 -0.710545 14
85.4705 21.4202 -0.560114 28
nan nan nan nan
80.7875 20.0125 -0.110261 12
80.514 20.0071 0.0261694 15
80.4893 20.0784 0.170281 39
79.5153 19.8234 0.335694 33
78.8341 19.7149 0.490826 37
78.5908 19.3567 0.641375 30
78.3943 19.6598 0.780504 16
80.9488 20.0032 0.890556 11
77.9728 19.5885 1.06714 7
77.9858 19.3776 1.21017 4
77.9709 19.4634 1.34934 33
78.041 19.4547 1.48942 33
78.1744 19.5631 1.62819 34
78.55 19.36 1.77117 39
78.4243 19.6805 1.90847 34
79.1326 19.5678 2.05313 24
79.7641 20.052 2.19345 16
78.5532 19.5928 2.47467 16
78.5442 19.6398 2.75666 33
78.6849 19.7446 3.04051 33
78.7795 19.8031 3.32498 34
79.1384 19.552 4.3295 45
78.4953 19.6009 5.72324 33
81.0188 20.2577 8.10949 35
nan nan nan nan
nan nan nan nan
nan nan nan nan
nan nan nan nan
nan nan nan nan
5.37506 1.30573 -0.0472183 16
6.7365 1.62393 -0.0936592 16
8.13828 1.99412 -0.145149 13
9.46618 2.29742 -0.169269 8
10.7363 2.60065 -0.18032 9
12.0882 2.93917 -0.210056 6
13.4147 3.26308 -0.233476 11
14.7722 3.58849 -0.270269 13
15.8261 3.88246 -0.289668 14
16.6369 4.03721 -0.314207 12
17.6614 4.30982 -0.345431 12
18.615 4.53693 -0.367045 10
19.3044 4.74019 -0.386095 12
20.4423 5.03394 -0.453319 13
21.1313 5.13904 -0.456899 11
nan nan nan nan
20.0835 4.93113 -0.19067 3
20.1263 4.95594 -0.119223 4
19.9734 4.85701 -0.0321465 5
19.7796 4.82023 0.0588933 250
20.0142 4.9361 0.106267 3
20.1335 4.95737 0.168055 3
20.1915 4.93597 0.236903 5
20.1712 4.91912 0.311919 3
20.13 4.96435 0.386391 6
20.1944 4.97578 0.454242 3
20.3056 4.96357 0.520082 3
20.6333 5.03151 0.57084 3
20.7794 5.05332 0.598488 3
21.0067 5.18403 0.618948 3
21.3681 5.2075 0.635315 3
21.5752 5.31542 0.659418 3
21.5826 5.27402 0.698915 3
21.633 5.2879 0.734769 3
21.7445 5.32478 0.767127 1
21.6606 5.27773 0.811511 4
21.7419 5.2911 0.850201 3
nan nan nan nan
21.7525 5.30482 0.92369 3
nan nan nan nan
21.9127 5.35846 0.994195 1
65.7973 16.1 -0.909646 30
65.9852 16.1729 -0.79981 36
66.041 16.0914 -0.681411 15
78.9276 19.3218 -1.06523 11
78.7341 19.3355 -0.917293 30
78.761 19.3303 -0.776396 13
78.8304 19.4231 -0.638506 13
78.9182 19.1466 -0.493999 38
78.9412 19.4909 -0.358988 11
nan nan nan nan
93.2823 22.7452 -0.430899 11
93.3576 22.8528 -0.283375 13
80.4037 19.7591 0.177116 35
80.4288 19.7532 0.3213 30
78.7618 19.4049 0.496755 7
79.411 19.265 0.631611 24
79.3118 19.5959 0.770524 7
85.327 20.7694 0.834919 6
85.0767 21.042 0.986506 6
84.9443 20.792 1.1437 1
78.0869 19.203 1.35214 27
78.1473 19.1917 1.49237 27
78.3442 19.3153 1.63092 35
79.1953 19.2261 1.77273 35
78.9779 19.5267 1.91112 42
79.1373 19.2761 2.05635 37
79.274 19.6202 2.19551 30
79.3605 19.515 2.48223 33
78.7045 19.3883 2.76078 24
78.6465 19.4435 3.04232 30
78.5409 19.4375 3.32314 30
79.172 19.2676 4.33176 41
78.6989 19.3604 5.7329 36
81.4131 20.055 8.13727 12
nan nan nan nan
nan nan nan nan
nan nan nan nan
nan nan nan nan
nan nan nan nan
5.37969 1.28687 -0.0469959 12
6.74689 1.60143 -0.0948341 14
8.1453 1.96562 -0.144813 14
9.479 2.26541 -0.169968 3
10.7589 2.57025 -0.182836 4
nan nan nan nan
13.4153 3.21854 -0.231375 11
14.7848 3.53681 -0.269658 12
15.8397 3.8271 -0.289014 12
16.6558 3.98017 -0.314191 12
17.6813 4.24922 -0.345342 12
18.6438 4.48182 -0.368196 11
19.321 4.67269 -0.385299 11
20.4695 4.96481 -0.453636 11
21.1716 5.07835 -0.458925 11
22.2212 5.34163 -0.500927 7
20.062 4.85157 -0.185618 3
20.1049 4.8762 -0.114315 5
20.0515 4.80927 -0.0378139 183
19.877 4.77778 0.0515406 255
19.9734 4.85204 0.112594 135
20.1508 4.887 0.168885 5
20.0868 4.83973 0.248287 5
20.1624 4.84984 0.3147 6
20.1667 4.8987 0.385665 5
20.1778 4.89698 0.457675 3
20.2929 4.88915 0.523004 3
20.6054 4.95612 0.574637 3
20.7679 4.97374 0.601315 3
21.0441 5.11534 0.618536 3
21.2795 5.10723 0.643029 3
nan nan nan nan
22.1785 5.33769 0.664929 3
nan nan nan nan
22.3454 5.38931 0.734943 1
nan nan nan nan
nan nan nan nan
nan nan nan nan
21.8147 5.23932 0.922423 4
nan nan nan nan
21.8828 5.27021 0.997334 3
65.9185 15.8981 -0.91007 36
66.1725 15.9741 -0.802647 5
66.2197 15.9268 -0.684415 9
78.8684 19.0156 -1.05707 35
78.8061 19.0616 -0.914225 39
78.8621 19.0634 -0.774343 30
78.8396 19.1336 -0.633307 37
78.9798 18.8698 -0.49058 35
79.0006 19.2278 -0.355754 14
93.4137 22.3942 -0.612255 16
93.2766 22.4507 -0.425725 18
93.2766 22.488 -0.275603 17
93.4834 22.6273 -0.114248 14
80.546 19.484 0.323606 11
79.208 19.2218 0.492778 34
79.1521 18.9098 0.640505 24
80.853 19.6925 0.750761 12
80.9116 19.3956 0.899626 36
80.8376 19.7093 1.04108 15
85.5753 20.6301 1.14158 4
78.3187 18.9704 1.35399 27
78.384 18.96 1.4945 17
78.5035 19.0642 1.63372 12
79.048 18.8984 1.77662 33
79.0373 19.2636 1.91422 24
79.2089 19.001 2.05962 40
79.1832 19.3193 2.19823 43
79.3407 19.2167 2.48497 42
nan nan nan nan
78.3268 19.0892 3.04031 39
78.6437 19.1865 3.32687 36
79.229 18.9889 4.33475 27
78.8095 19.0964 5.73822 38
81.3999 19.751 8.13442 24
nan nan nan nan
nan nan nan nan
nan nan nan nan
nan nan nan nan
nan nan nan nan
5.38425 1.268 -0.0467725 19
6.74322 1.57561 -0.0916452 13
8.15222 1.93709 -0.144475 17
nan nan nan nan
nan nan nan nan
2.85736 0.672396 1.4854 9
13.4314 3.17274 -0.231619 9
14.7971 3.4851 -0.269044 12
15.8579 3.77285 -0.289056 12
16.6745 3.92306 -0.31417 12
17.701 4.18853 -0.34525 13
18.6691 4.41891 -0.368652 10
19.3373 4.60513 -0.384499 13
20.2646 4.8402 -0.426117 13
21.1911 4.99692 -0.457959 12
22.2737 5.27195 -0.50382 6
20.0402 4.77222 -0.180565 3
20.0977 4.80015 -0.110935 5
20.0554 4.72873 -0.0354197 178
19.9324 4.71747 0.0485605 228
20 4.78454 0.112504 117
20.163 4.81541 0.17016 3
20.0948 4.76372 0.250008 5
20.0629 4.75181 0.325282 4
20.1256 4.8143 0.391165 5
20.1754 4.82183 0.459996 3
20.2526 4.80087 0.528133 3
20.5846 4.87132 0.578226 3
20.7366 4.88972 0.605454 3
20.9697 5.01974 0.62547 3
21.2438 5.02025 0.647324 3
nan nan nan nan
22.4204 5.31317 0.652376 3
22.3399 5.29564 0.697345 3
22.505 5.3447 0.72788 4
nan nan nan nan
22.4977 5.30883 0.813953 4
21.778 5.21287 0.885521 3
nan nan nan nan
21.9487 5.2447 0.95579 3
21.8671 5.18569 0.999803 3
21.9609 5.2095 1.03487 3
22.1159 5.25603 1.06751 3
78.9089 18.6731 -1.19327 16
78.9588 18.7459 -1.05474 34
78.8674 18.7852 -0.910782 19
78.7971 18.7567 -0.766463 38
78.9012 18.857 -0.629883 39
79.0453 18.5939 -0.487299 16
79.0674 18.9519 -0.352487 13
93.6812 22.1127 -0.613678 17
93.6308 22.1731 -0.428738 13
93.9674 22.3077 -0.286669 15
93.8439 22.3681 -0.116748 22
93.6462 22.3068 0.0559871 11
79.0997 18.9033 0.499383 33
79.1447 18.6163 0.645045 27
80.7463 19.3681 0.756804 12
80.9594 19.1085 0.903249 13
85.2278 20.4648 0.993238 10
80.9185 19.2089 1.19247 4
85.6991 20.4415 1.29702 8
85.726 20.4192 1.45093 6
79.0558 18.9063 1.6347 10
79.1037 18.6201 1.77993 38
79.1041 18.9876 1.91749 38
79.2018 18.7072 2.06285 39
79.2161 19.0347 2.20141 35
79.5823 18.9815 2.48933 40
79.7715 19.0616 2.77635 30
79.5402 19.0912 3.0588 37
78.7538 18.9225 3.33086 34
78.3558 18.4908 4.31037 35
78.5208 18.7368 5.72466 38
81.4826 19.4705 8.13888 28
nan nan nan nan
nan nan nan nan
nan nan nan nan
nan nan nan nan
nan nan nan nan
5.38875 1.24912 -0.0465481 12
6.75756 1.55648 -0.0942998 4
8.15433 1.90744 -0.14289 13
2.76422 0.637532 1.37594 39
2.81676 0.649091 1.4368 32
2.84053 0.657944 1.48903 36
13.4281 3.1224 -0.228657 5
14.8093 3.43334 -0.268427 13
15.8759 3.71851 -0.289093 11
16.6869 3.87058 -0.313545 12
17.7156 4.12663 -0.344513 12
18.699 4.35701 -0.369717 11
19.3534 4.53752 -0.383695 13
20.2477 4.76139 -0.421218 11
20.9335 4.8551 -0.42499 12
22.3018 5.19634 -0.503983 8
20.0327 4.69648 -0.177094 3
20.1629 4.74126 -0.115194 6
20.0194 4.64275 -0.0291224 188
19.944 4.64667 0.0498656 228
19.9973 4.71007 0.115167 117
20.1943 4.74835 0.169675 4
20.054 4.67638 0.255965 4
20.0455 4.67377 0.328958 3
20.0259 4.71655 0.401326 4
20.1776 4.7479 0.461947 3
20.2507 4.72203 0.530433 5
20.5481 4.78694 0.582781 3
20.6945 4.80734 0.610204 3
20.9191 4.93045 0.630806 3
21.1769 4.93421 0.653392 3
22.4656 5.28553 0.610243 4
22.5604 5.26321 0.645992 5
22.5974 5.26926 0.684407 5
nan nan nan nan
22.4717 5.23482 0.772543 5
nan nan nan nan
nan nan nan nan
22.4959 5.24522 0.892176 3
21.9378 5.16116 0.958092 3
21.8803 5.10816 1.00094 3
21.902 5.11078 1.03926 3
22.066 5.16283 1.07131 1
22.1943 5.16991 1.10614 3
nan nan nan nan
78.9132 18.5051 -0.906786 30
78.9271 18.5112 -0.765741 35
78.9666 18.5814 -0.626606 34
nan nan nan nan
93.8659 22.1359 -0.786884 15
93.7774 21.79 -0.610318 14
94.3989 22.0073 -0.442751 16
94.9355 22.1877 -0.30441 16
93.9166 22.0392 -0.112738 13
81.7816 19.1946 0.307217 12
79.2188 18.6397 0.501654 17
81.7613 18.9309 0.604702 11
80.6417 19.0307 0.763016 16
80.8454 18.7839 0.909059 10
80.7251 19.0858 1.05071 11
80.7611 18.874 1.19807 4
80.8052 18.9764 1.34121 33
nan nan nan nan
79.1311 18.6326 1.63794 12
79.1877 18.3484 1.78317 12
79.0953 18.6792 1.92101 34
79.2861 18.4352 2.06617 40
79.2723 18.7558 2.20467 37
79.7649 18.7311 2.49335 38
79.7548 18.7637 2.77885 40
79.4879 18.7709 3.06064 35
79.6221 18.8375 3.3477 38
79.6222 18.4967 4.34909 34
78.6195 18.4708 5.72954 34
83.2924 19.5963 8.27353 36
nan nan nan nan
nan nan nan nan
nan nan nan nan
nan nan nan nan
nan nan nan nan
5.38861 1.22918 -0.0445762 4
2.82498 0.641413 1.13291 3
8.16577 1.87996 -0.143796 8
2.84733 0.646318 1.35751 39
2.83817 0.643589 1.43303 40
2.86203 0.652391 1.48564 75
13.4631 3.08093 -0.232099 4
14.8207 3.38413 -0.267838 11
15.8985 3.66521 -0.289825 14
16.7011 3.8093 -0.312812 12
17.7349 4.06578 -0.344414 12
18.7142 4.29162 -0.368936 11
19.374 4.47096 -0.383484 13
20.2643 4.6906 -0.420373 13
20.9351 4.78225 -0.422473 11
22.3393 5.12281 -0.505229 8
20.0345 4.6231 -0.174676 3
20.1552 4.66517 -0.111807 6
20.0299 4.57516 -0.0278344 187
19.9505 4.57473 0.0516495 232
19.9894 4.63455 0.11829 116
20.206 4.67665 0.170958 4
20.0597 4.60757 0.257607 32
20.0472 4.60036 0.331012 8
20.1054 4.6612 0.397112 6
20.1747 4.67289 0.464272 4
20.1642 4.63134 0.538659 5
20.4919 4.69841 0.58868 3
20.6715 4.72974 0.613644 3
20.8974 4.84833 0.634227 3
21.1414 4.84426 0.657729 3
22.5423 5.22053 0.607564 4
22.5982 5.18885 0.645765 4
22.6537 5.2032 0.683034 5
23.4517 5.39681 0.678317 4
nan nan nan nan
nan nan nan nan
22.5486 5.231 0.84973 4
nan nan nan nan
21.9168 5.07552 0.960859 3
21.8493 5.02053 1.00408 3
21.9189 5.03809 1.04013 3
22.0645 5.08127 1.07305 1
22.4119 5.13817 1.09901 3
22.5157 5.18424 1.1347 3
22.4021 5.17201 1.17893 3
79.4296 18.3366 -0.777792 13
80.1606 18.5672 -0.660853 12
78.5594 17.9016 -0.46143 6
78.5196 18.2273 -0.325528 12
95.6509 21.8737 -0.656389 12
95.4643 21.9045 -0.46437 15
94.8577 21.838 -0.296983 11
95.4104 22.0386 -0.140665 19
79.0573 18.2643 0.368334 13
79.1032 18.3213 0.508361 16
78.6586 17.9233 0.662128 6
nan nan nan nan
80.7253 18.4593 0.914935 6
80.5673 18.7518 1.0567 13
78.6259 18.1003 1.22306 4
78.4401 18.1324 1.36435 6
79.0574 18.2633 1.50106 13
79.1469 18.345 1.64146 37
80.2798 18.3066 1.78368 13
nan nan nan nan
79.384 18.1662 2.06951 7
79.3324 18.4779 2.20796 11
78.9236 18.2432 2.49106 38
80.0876 18.5473 2.7848 33
79.5529 18.4934 3.06395 17
79.5217 18.521 3.34821 35
79.6764 18.2166 4.35214 30
80.1351 18.5469 5.80167 34
nan nan nan nan
nan nan nan nan
nan nan nan nan
nan nan nan nan
nan nan nan nan
nan nan nan nan
nan nan nan nan
2.81323 0.628398 1.13738 83
nan nan nan nan
2.76855 0.618654 1.37617 68
2.8165 0.628294 1.438 58
2.84991 0.639137 1.48839 52
2.81347 0.633625 1.54044 12
14.8278 3.3312 -0.266476 9
15.9113 3.60961 -0.289159 13
16.7337 3.75523 -0.314794 12
17.7484 4.00687 -0.343707 12
18.7285 4.22946 -0.36819 11
19.3897 4.40322 -0.382673 13
20.2758 4.61864 -0.418946 13
20.9372 4.70579 -0.419909 13
21.7454 4.91065 -0.43574 11
20.0409 4.55085 -0.172783 3
20.1714 4.59471 -0.110964 8
20.0702 4.5106 -0.0294552 180
19.9608 4.50738 0.0529191 231
19.9862 4.56025 0.120957 111
20.1834 4.59718 0.175326 3
20.0709 4.53636 0.258871 6
20.1499 4.55358 0.324513 5
20.1508 4.59758 0.395624 6
20.157 4.59463 0.467712 3
20.2047 4.56638 0.537738 1
20.5163 4.63617 0.588782 3
20.679 4.65171 0.615209 3
20.8802 4.76754 0.637331 3
21.1096 4.75942 0.661713 3
22.6237 5.15618 0.604593 4
nan nan nan nan
22.7108 5.13286 0.681715 3
22.8618 5.177 0.713659 4
nan nan nan nan
22.4588 5.05594 0.821604 3
nan nan nan nan
nan nan nan nan
21.8955 4.99008 0.963627 3
21.8367 4.9414 1.00628 1
21.8731 4.94719 1.04383 3
22.0237 4.99094 1.07644 3
22.3549 5.05119 1.1028 3
22.5532 5.11 1.13489 3
22.6929 5.15574 1.16984 3
80.7358 18.3415 -0.817889 15
nan nan nan nan
nan nan nan nan
94.0672 21.4911 -0.780486 16
94.5809 21.2818 -0.620585 46
94.8794 21.4567 -0.443918 26
95.7427 21.69 -0.312582 12
96.0231 21.8272 -0.148685 12
79.6422 18.1067 0.36089 13
79.6005 18.1439 0.5035 13
81.3062 18.2284 0.621506 33
87.9613 20.111 0.660009 10
80.604 18.1357 0.920811 13
80.249 18.3974 1.06434 10
80.21 18.1704 1.21134 1
79.5121 18.088 1.35948 13
79.1694 17.9984 1.50406 14
79.9661 18.241 1.64136 24
nan nan nan nan
80.3691 18.3888 1.92654 17
80.5396 18.135 2.07381 17
78.8376 18.0873 2.20965 13
79.055 17.9832 2.49479 34
79.5766 18.1366 2.78251 34
80.0896 18.3239 3.0736 13
80.3233 18.4272 3.36393 17
79.7296 17.9363 4.35519 34
80.8809 18.4225 5.83736 20
nan nan nan nan
nan nan nan nan
nan nan nan nan
nan nan nan nan
nan nan nan nan
nan nan nan nan
2.82588 0.624628 0.937145 42
2.82013 0.619562 1.13605 40
2.82792 0.632804 1.26634 40
2.83278 0.622163 1.36211 56
2.83307 0.621603 1.43521 44
2.84735 0.628103 1.48939 60
2.82555 0.624932 1.53897 38
14.8442 3.2804 -0.266591 5
15.9143 3.5518 -0.287097 12
16.7372 3.69457 -0.312747 12
17.7582 3.94062 -0.342282 10
18.7495 4.15849 -0.367936 10
19.4002 4.33434 -0.381261 13
20.2871 4.54666 -0.417516 13
20.9585 4.63366 -0.419588 12
21.7885 4.8324 -0.437454 9
20.0422 4.47754 -0.17036 4
20.1438 4.51442 -0.105538 5
20.1296 4.45011 -0.0330384 33
19.978 4.43063 0.0538435 112
19.9972 4.4893 0.122254 108
20.0488 4.4929 0.189817 3
20.1111 4.47162 0.257602 6
20.1527 4.47287 0.326661 6
20.1522 4.52388 0.397634 3
20.1632 4.52201 0.469299 3
20.2206 4.49577 0.538588 1
20.5146 4.55298 0.591074 3
20.6952 4.57945 0.61608 3
20.8579 4.68583 0.640754 3
21.0921 4.6781 0.664768 3
nan nan nan nan
nan nan nan nan
nan nan nan nan
22.797 5.07867 0.71929 4
nan nan nan nan
22.4763 4.97748 0.82255 3
nan nan nan nan
21.7559 4.82902 0.934135 4
nan nan nan nan
21.8059 4.85045 1.00947 1
21.8659 4.86536 1.04582 3
21.9874 4.90204 1.07962 3
22.3116 4.94732 1.10644 3
22.5271 5.02144 1.13753 3
23.0326 5.14839 1.15899 3
83.3793 18.636 -0.904468 14
83.663 18.7636 -0.765819 7
83.6509 18.4485 -0.610034 10
94.0247 21.1362 -0.773082 12
94.0691 20.8218 -0.600393 39
94.3647 20.9424 -0.423889 40
94.5201 21.0664 -0.277245 16
94.2108 21.0697 -0.102458 15
79.7391 17.8362 0.363535 13
79.7952 17.8955 0.50437 14
88.52 19.5055 0.504085 10
88.5773 19.9268 0.655391 18
80.5643 17.8315 0.925577 27
80.2622 18.091 1.0685 36
79.3945 17.6945 1.22334 5
79.404 17.7722 1.36419 34
79.4806 17.7776 1.50583 12
79.839 17.9191 1.64557 13
80.1793 17.6811 1.79121 12
78.7256 17.7238 1.93145 12
78.8401 17.4635 2.07557 43
78.9082 17.7994 2.21313 42
79.0929 17.7017 2.49796 36
79.2735 17.7768 2.78225 37
80.1482 18.0432 3.0769 24
79.488 17.9293 3.35213 37
79.777 17.6548 4.35812 37
81.2077 18.1993 5.85324 30
43.786 9.82772 5.29538 37
nan nan nan nan
nan nan nan nan
nan nan nan nan
nan nan nan nan
nan nan nan nan
2.83268 0.615709 0.935518 95
2.80839 0.60617 1.14053 58
2.82542 0.621865 1.26771 33
2.8302 0.611209 1.36332 58
2.83525 0.611688 1.43533 34
2.84955 0.61814 1.48951 71
2.83727 0.617643 1.53748 43
14.852 3.22224 -0.265161 3
15.9267 3.49614 -0.286425 9
16.7459 3.63206 -0.311333 9
17.7817 3.88064 -0.342812 6
18.7779 4.09939 -0.369024 11
19.4202 4.26757 -0.381039 14
20.2981 4.47466 -0.416081 13
20.9553 4.55616 -0.416457 12
21.8337 4.7664 -0.439844 14
nan nan nan nan
20.1207 4.43544 -0.10062 5
20.1792 4.38715 -0.0356302 6
19.9927 4.36429 0.0546454 8
20.0031 4.41726 0.124011 108
20.045 4.41854 0.192422 3
20.0731 4.38962 0.263099 8
20.1042 4.39214 0.332735 5
20.1436 4.44809 0.400422 8
20.1692 4.4494 0.47089 4
20.2362 4.42512 0.539442 1
20.5255 4.48024 0.592276 3
20.7029 4.49778 0.617696 3
20.8595 4.60972 0.642588 3
21.0945 4.59753 0.666631 3
nan nan nan nan
22.2126 4.85579 0.674888 5
nan nan nan nan
22.7366 4.98192 0.724644 4
nan nan nan nan
22.4954 4.8911 0.823595 3
nan nan nan nan
21.7345 4.7407 0.937017 3
nan nan nan nan
21.8228 4.77427 1.01039 1
21.8681 4.78577 1.04738 3
21.9654 4.81667 1.08219 3
22.2547 4.8573 1.11027 3
22.5014 4.9292 1.14021 3
23.3336 5.13015 1.14961 3
nan nan nan nan
nan nan nan nan
nan nan nan nan
83.7866 18.5274 -0.465309 6
84.0075 18.2871 -0.316575 10
82.3184 17.9826 -0.10921 28
82.0918 17.9809 0.0278336 37
81.6246 17.9561 0.183678 46
81.7619 17.9742 0.326934 11
81.8392 18.054 0.470625 13
81.8273 17.7461 0.621696 17
81.7198 18.0844 0.764115 11
80.5675 17.5374 0.929763 14
80.3493 17.8162 1.0716 14
79.965 17.4996 1.22211 4
79.5486 17.5132 1.36688 7
nan nan nan nan
nan nan nan nan
78.542 17.0471 1.79883 33
78.6112 17.41 1.93491 43
78.7784 17.1616 2.07878 33
78.7258 17.4698 2.21579 34
79.1102 17.4159 2.50102 41
79.4473 17.5248 2.7867 41
80.2106 17.7634 3.08027 36
79.7062 17.6865 3.35814 30
79.8722 17.3838 4.3625 39
nan nan nan nan
43.6414 9.6276 5.28376 35
nan nan nan nan
nan nan nan nan
nan nan nan nan
nan nan nan nan
nan nan nan nan
2.80279 0.59894 0.947858 65
2.80586 0.59534 1.14211 33
2.82287 0.610951 1.26907 41
2.82757 0.600282 1.36453 65
2.8326 0.600744 1.43642 34
2.85653 0.609199 1.48876 72
2.83461 0.606683 1.5384 52
2.90325 0.619212 1.56382 8
15.9486 3.44253 -0.287143 5
16.7731 3.57659 -0.312633 5
17.7904 3.81742 -0.341418 3
18.7922 4.03373 -0.368227 10
19.4351 4.19966 -0.380217 13
20.3138 4.40369 -0.415222 13
20.976 4.48393 -0.416128 13
21.8552 4.69111 -0.439462 14
22.6345 4.89057 -0.446147 4
20.0632 4.34931 -0.0921438 5
20.0582 4.28747 -0.0210066 5
20.0712 4.30798 0.0493268 5
20.0672 4.3579 0.120286 5
20.0847 4.35375 0.191072 5
20.1176 4.32575 0.261416 5
20.1439 4.32711 0.331563 5
20.1591 4.37769 0.401274 4
20.1847 4.37892 0.471743 4
20.2467 4.35335 0.540653 1
20.546 4.40956 0.592811 3
20.7389 4.42599 0.617313 3
20.8609 4.53366 0.644423 3
21.1056 4.52278 0.667835 3
21.3743 4.63658 0.68768 1
22.698 4.87895 0.64783 3
nan nan nan nan
23.5445 5.07289 0.681178 1
nan nan nan nan
nan nan nan nan
22.5904 4.90916 0.855018 2
21.7168 4.65745 0.939614 3
21.8637 4.74244 0.970321 4
21.81 4.69173 1.01265 1
21.8408 4.69992 1.05023 1
21.9381 4.73046 1.08496 3
22.257 4.77642 1.1118 3
22.5047 4.84352 1.14177 4
23.6493 5.11304 1.13971 3
nan nan nan nan
nan nan nan nan
nan nan nan nan
nan nan nan nan
83.7776 17.9309 -0.304931 36
82.3514 17.6888 -0.104969 37
82.1963 17.6883 0.0305482 34
81.6967 17.6731 0.186916 43
81.492 17.6168 0.337187 33
81.7015 17.7247 0.477826 17
84.8665 18.0954 0.575074 10
85.969 18.7103 0.704337 1
80.8385 17.3011 0.930393 10
80.2401 17.4983 1.07697 7
87.8935 18.8974 1.14932 4
87.6674 18.9799 1.30625 13
81.6682 17.6542 1.50003 7
78.5305 17.0506 1.65858 27
78.689 16.7916 1.80194 42
78.6373 17.128 1.93826 39
78.7498 16.8677 2.08203 36
78.7668 17.1907 2.21907 30
79.1363 17.1323 2.50415 34
79.4786 17.2411 2.78977 33
80.1939 17.4664 3.08261 38
80.0018 17.4594 3.3655 39
80.2792 17.1793 4.37616 40
44.8045 9.69721 4.12675 6
43.7347 9.48043 5.2901 38
nan nan nan nan
nan nan nan nan
nan nan nan nan
nan nan nan nan
nan nan nan nan
2.80492 0.58911 0.947977 68
2.80328 0.584536 1.14368 71
2.82029 0.600063 1.27044 62
2.82491 0.58938 1.36574 68
2.83471 0.59083 1.43654 64
2.85856 0.599704 1.48887 64
2.84156 0.597784 1.53772 96
2.89068 0.607027 1.56615 36
15.951 3.38469 -0.285073 3
16.7808 3.51692 -0.311248 1
2.91799 0.61231 1.62225 1
18.8063 3.96802 -0.367428 8
19.4789 4.1379 -0.382965 12
20.3291 4.33267 -0.41436 13
20.9771 4.40753 -0.413552 12
21.8569 4.61162 -0.436901 14
22.6759 4.81661 -0.447817 5
20.0686 4.2771 -0.0902755 5
20.005 4.20302 -0.0132716 13
20.057 4.23166 0.0530257 4
20.058 4.28257 0.123423 5
20.0804 4.2794 0.193683 3
20.1229 4.25337 0.263116 3
20.159 4.25671 0.332421 3
20.1792 4.30828 0.401742 3
20.1999 4.30839 0.4726 30
20.2814 4.28673 0.540104 3
20.5564 4.33674 0.59402 3
20.752 4.3644 0.618064 3
20.8669 4.45868 0.645944 3
21.1213 4.44904 0.668734 3
21.4148 4.5671 0.687086 3
23.4523 4.95559 0.604787 3
nan nan nan nan
23.5955 5.00199 0.68021 3
nan nan nan nan
23.5193 4.9505 0.773513 3
nan nan nan nan
21.7232 4.57952 0.941016 3
21.7922 4.64733 0.975399 4
21.8117 4.61244 1.01424 4
21.8278 4.61742 1.05243 1
21.9195 4.65041 1.08727 3
nan nan nan nan
22.462 4.75642 1.14492 3
nan nan nan nan
nan nan nan nan
nan nan nan nan
64.6657 13.5519 -0.0041132 4
nan nan nan nan
83.6949 17.6231 -0.297643 12
82.4275 17.4043 -0.10184 34
82.2351 17.4114 0.0343376 36
82.1002 17.4606 0.182799 36
82.2278 17.4756 0.326896 12
84.7894 18.0848 0.424976 15
85.7952 17.9806 0.564168 0
80.6317 17.254 0.789287 10
80.9297 17.0401 0.933211 7
80.0612 17.1668 1.08312 10
80.097 16.9581 1.22859 4
80.0211 17.0324 1.37085 5
79.6165 16.9201 1.5164 10
78.7509 16.8108 1.66122 27
78.8059 16.5292 1.80515 35
78.7699 16.8692 1.94154 35
78.8102 16.6076 2.08522 41
78.836 16.9178 2.22243 35
78.4425 16.6958 2.50271 36
79.5725 16.9709 2.79348 35
79.5845 17.043 3.07697 37
80.0426 17.176 3.36856 34
80.6995 17.0044 4.39009 33
44.7679 9.53413 4.12531 39
43.6097 9.30222 5.28012 31
44.1898 9.45988 6.51511 96
44.9645 9.71704 8.582 60
nan nan nan nan
nan nan nan nan
nan nan nan nan
2.80242 0.578328 0.949843 61
2.80066 0.573757 1.14525 97
2.73706 0.572458 1.29295 74
2.80786 0.575547 1.37022 68
2.82237 0.577945 1.43957 66
2.8462 0.586713 1.49162 57
2.86782 0.592843 1.53385 48
2.89765 0.597915 1.56554 43
2.88514 0.603063 1.59306 3
2.89332 0.598137 1.60772 5
2.91042 0.600092 1.62365 25
18.8347 3.90528 -0.368463 4
19.4884 4.06877 -0.381539 9
20.3345 4.25956 -0.412337 13
20.9925 4.33419 -0.412656 10
21.873 4.53521 -0.435967 14
22.683 4.7353 -0.445797 5
20.0835 4.20694 -0.0894201 11
20.0294 4.13511 -0.0133989 9
20.0766 4.16256 0.0534085 9
20.0778 4.21348 0.123821 4
20.105 4.21126 0.19366 3
20.1426 4.18406 0.263553 40
20.1787 4.18727 0.332877 9
20.1991 4.23878 0.402215 28
20.2149 4.2378 0.473461 30
20.2963 4.21586 0.54097 3
20.5715 4.26491 0.594898 3
20.7581 4.28625 0.619648 3
20.8678 4.3827 0.647786 3
21.1368 4.37524 0.669636 3
21.3965 4.48511 0.690099 3
23.4451 4.86857 0.607245 3
23.5401 4.88992 0.643591 4
23.5982 4.9165 0.682039 3
nan nan nan nan
nan nan nan nan
nan nan nan nan
nan nan nan nan
nan nan nan nan
21.813 4.5332 1.01584 1
21.8585 4.54422 1.05273 3
21.9357 4.57384 1.08821 3
nan nan nan nan
22.415 4.66473 1.14831 3
nan nan nan nan
nan nan nan nan
nan nan nan nan
64.7127 13.3261 -0.0013473 4
nan nan nan nan
94.4686 19.5304 -0.587602 16
95.0561 19.7245 -0.418511 11
82.775 17.224 0.0263946 11
nan nan nan nan
86.0025 17.9642 0.254913 10
86.0508 18.0399 0.406349 12
80.4958 16.5766 0.657455 17
80.6622 16.9662 0.793161 13
nan nan nan nan
80.0424 16.8707 1.08742 12
80.1215 16.6713 1.23234 4
79.9871 16.7336 1.37499 30
80.2233 16.7566 1.51648 38
80.3212 16.853 1.65809 27
78.8925 16.2601 1.80844 35
78.8479 16.5983 1.94488 40
78.8706 16.3186 2.08876 34
78.9631 16.657 2.22598 34
78.833 16.4915 2.50819 36
79.6997 16.7075 2.79756 37
79.5065 16.7363 3.0785 33
80.6499 17.0122 3.38134 34
46.4575 9.6109 3.37748 34
44.4342 9.30118 4.10981 34
43.6514 9.15215 5.28271 25
44.2564 9.31295 6.52047 38
44.5766 9.47082 8.52225 35
nan nan nan nan
nan nan nan nan
nan nan nan nan
2.78151 0.56386 0.958688 39
2.79799 0.563004 1.14682 97
2.81025 0.577396 1.27441 66
2.82424 0.568625 1.36708 61
2.83882 0.570982 1.43678 79
2.84353 0.575278 1.49263 54
2.86506 0.581828 1.53477 41
2.89489 0.586798 1.5664 52
2.8824 0.59198 1.59388 38
2.89055 0.587037 1.60851 37
2.91738 0.590905 1.62314 36
18.8484 3.83942 -0.367656 1
19.5075 4.00163 -0.3813 5
20.3543 4.18946 -0.412045 11
21.0124 4.26179 -0.412315 8
21.884 4.45775 -0.434487 13
22.6946 4.65501 -0.4443 5
20.0787 4.13273 -0.0865302 11
nan nan nan nan
nan nan nan nan
20.112 4.14732 0.122853 6
20.1343 4.144 0.193203 1
20.1767 4.11765 0.26273 4
20.2079 4.11974 0.33253 6
20.2334 4.17222 0.401531 3
20.2834 4.17821 0.470261 30
20.3158 4.14594 0.541488 3
20.6157 4.19901 0.593773 3
20.7975 4.21867 0.618909 3
20.9172 4.31684 0.646457 3
21.1569 4.30238 0.670234 3
21.4219 4.41237 0.690415 1
nan nan nan nan
nan nan nan nan
nan nan nan nan
nan nan nan nan
nan nan nan nan
nan nan nan nan
nan nan nan nan
nan nan nan nan
21.8337 4.458 1.01655 3
21.8694 4.46687 1.05388 4
21.9328 4.48938 1.09001 3
nan nan nan nan
22.3871 4.57743 1.15095 3
22.7619 4.6722 1.17687 3
nan nan nan nan
nan nan nan nan
nan nan nan nan
nan nan nan nan
94.2458 19.1244 -0.575306 13
94.2625 19.2168 -0.39253 16
94.6275 19.3458 -0.250968 13
80.5358 16.5411 0.226962 13
80.492 16.5203 0.37154 16
80.507 16.5848 0.513729 6
80.8571 16.357 0.655849 14
80.7307 16.6866 0.796462 24
80.5577 16.346 0.946975 11
80.3016 16.6328 1.08856 36
79.6502 16.2834 1.24083 6
79.3986 16.3214 1.38345 46
79.3899 16.2936 1.52527 33
78.7587 16.2385 1.6684 34
78.9831 15.9916 1.81175 35
78.9249 16.3271 1.94824 35
78.9347 16.0305 2.09232 34
79.0942 16.3965 2.22957 33
79.2476 16.2898 2.51387 36
79.1404 16.3022 2.79479 34
79.109 16.3646 3.07572 33
81.1884 16.8301 3.39301 35
46.1935 9.37997 3.37072 39
44.339 9.11997 4.10567 38
43.6976 9.00291 5.28568 13
44.1714 9.13446 6.51042 30
43.6353 9.11204 8.38166 35
nan nan nan nan
nan nan nan nan
nan nan nan nan
2.76973 0.551369 0.964042 48
2.80468 0.554122 1.14549 95
2.81218 0.568046 1.27452 72
2.82624 0.558738 1.3672 61
2.83121 0.559137 1.43885 75
2.83589 0.563405 1.4945 50
2.85742 0.569874 1.53649 52
2.87755 0.572815 1.56948 63
2.88932 0.582876 1.5933 38
2.90719 0.579823 1.60663 42
2.9243 0.581677 1.62263 65
2.92589 0.584938 1.63853 9
19.5361 3.93637 -0.382247 3
20.3584 4.11989 -0.41006 8
21.0078 4.18444 -0.40917 5
21.8995 4.38125 -0.433545 11
20.3029 4.09071 -0.18363 5
20.0973 4.06704 -0.0862188 3
20.1312 4.00962 -0.0190394 5
20.1249 4.02607 0.0532391 3
20.1411 4.07999 0.122347 3
20.1773 4.08307 0.191391 3
20.2057 4.05007 0.262333 10
20.2906 4.06282 0.327743 8
20.2772 4.10745 0.400079 20
20.3559 4.12275 0.466657 5
20.4574 4.10045 0.533215 3
20.6009 4.1211 0.596666 3
20.8268 4.14893 0.618828 3
20.9323 4.24376 0.647354 3
21.1719 4.22846 0.671145 3
21.4365 4.34127 0.691288 3
21.5504 4.31799 0.723842 1
nan nan nan nan
nan nan nan nan
nan nan nan nan
nan nan nan nan
nan nan nan nan
nan nan nan nan
nan nan nan nan
21.8491 4.38173 1.01749 3
21.8702 4.38752 1.05545 3
21.9434 4.41178 1.09116 3
nan nan nan nan
22.3883 4.49628 1.15247 3
22.792 4.59964 1.17727 3
nan nan nan nan
nan nan nan nan
nan nan nan nan
83.1034 16.8603 -0.418463 15
83.3879 16.6331 -0.273306 50
94.6917 18.9602 -0.397671 13
83.3296 16.7332 0.0231372 114
83.2804 16.817 0.171074 89
80.8629 16.3024 0.368659 27
80.8164 16.3693 0.512312 41
81.1589 16.1234 0.655261 43
80.8816 16.4236 0.798539 41
80.8762 16.1316 0.946813 39
79.1833 16.1131 1.10533 24
79.2163 15.9068 1.24892 6
79.2023 16.0075 1.38862 48
79.2306 15.9729 1.52996 30
79.5716 16.1312 1.66842 20
79.8231 15.8719 1.81329 12
79.0794 16.0714 1.95156 12
79.6297 15.897 2.0963 24
79.5037 16.1922 2.23399 34
79.3403 16.0349 2.51736 33
79.3872 16.0933 2.79981 30
81.875 16.6392 3.11598 36
82.2753 16.7562 3.41415 30
45.4221 9.05842 3.34886 35
44.4097 8.97318 4.10944 30
43.753 8.85543 5.28939 17
44.1315 8.98196 6.50515 17
43.5113 8.92812 8.36084 36
nan nan nan nan
nan nan nan nan
nan nan nan nan
2.75779 0.539451 0.96939 48
2.79724 0.542481 1.14852 56
2.80468 0.556326 1.27713 45
2.82341 0.547908 1.36841 52
2.83317 0.549229 1.43897 68
2.83787 0.553483 1.49462 50
2.85941 0.559878 1.53661 52
2.87945 0.563254 1.5696 53
2.8864 0.572316 1.59412 48
2.89949 0.567761 1.60809 38
2.9166 0.569539 1.62403 46
2.88898 0.567054 1.64356 40
2.94248 0.584156 1.64709 6
20.3777 4.04968 -0.40976 5
21.0322 4.1129 -0.409382 4
21.9051 4.30277 -0.431514 9
20.3213 4.02425 -0.183324 5
20.1164 3.99775 -0.0858605 3
20.1647 3.94307 -0.0201321 4
20.1438 3.95669 0.0536349 3
20.1546 4.01312 0.123171 3
20.1525 4.00479 0.195769 3
20.2198 3.97946 0.263205 12
20.2559 3.98229 0.332656 3
20.2664 4.03527 0.402841 8
20.4191 4.06133 0.463842 9
20.3591 4.0068 0.542184 3
20.6446 4.05489 0.595551 3
20.8839 4.09207 0.616709 1
20.9658 4.17818 0.646943 3
21.2061 4.15833 0.670827 3
21.4564 4.26734 0.691912 3
21.6781 4.26488 0.718088 3
nan nan nan nan
nan nan nan nan
nan nan nan nan
22.194 4.35271 0.849881 3
nan nan nan nan
nan nan nan nan
nan nan nan nan
21.8643 4.30541 1.01843 3
21.8854 4.31113 1.0564 3
21.9735 4.33803 1.09149 3
nan nan nan nan
22.3933 4.42006 1.15376 3
nan nan nan nan
65.3715 12.9309 -0.245026 30
65.3709 13.0045 -0.129966 11
nan nan nan nan
95.4746 19.0237 -0.77292 11
nan nan nan nan
96.6703 19.0056 -0.441965 11
nan nan nan nan
nan nan nan nan
89.05 17.6294 0.208287 13
nan nan nan nan
81.3788 15.8867 0.655832 37
81.3847 16.2302 0.795401 24
81.4473 15.9501 0.943607 40
80.3619 16.061 1.09607 38
80.3184 15.8512 1.24223 1
80.0887 15.9104 1.38544 35
79.3399 15.7069 1.53306 10
nan nan nan nan
nan nan nan nan
82.077 16.3827 1.9532 11
79.7829 15.6382 2.09986 11
79.5793 15.9186 2.23746 27
79.5549 15.8039 2.52166 36
79.3574 15.7848 2.80251 27
82.0011 16.3671 3.12044 35
82.3577 16.4739 3.41811 30
45.2228 8.85475 3.34398 38
43.4152 8.62263 4.06262 39
43.9385 8.74159 5.30295 23
43.7882 8.74538 6.4688 33
43.3818 8.7442 8.3393 33
nan nan nan nan
nan nan nan nan
nan nan nan nan
2.7413 0.526257 0.976488 42
2.79917 0.53268 1.14864 70
2.80189 0.545584 1.2785 44
2.82524 0.538519 1.36853 76
2.835 0.53981 1.43909 73
2.83981 0.543554 1.49474 49
2.86138 0.549875 1.53674 69
2.88162 0.552176 1.56973 52
2.8884 0.562222 1.59424 57
2.92094 0.561344 1.60554 58
2.94284 0.564552 1.62096 46
2.96892 0.571986 1.63389 63
2.98351 0.581444 1.64246 40
3.06182 0.600642 1.64366 6
2.97817 0.569284 1.66469 31
21.9201 4.22619 -0.430565 3
20.3402 3.95416 -0.18297 6
20.1401 3.92934 -0.0860052 1
20.1784 3.87259 -0.0192578 3
20.1674 3.88816 0.0535612 3
20.1832 3.94554 0.122674 3
20.1909 3.93912 0.194448 3
20.2434 3.91068 0.263239 74
20.2551 3.90867 0.334744 3
20.3244 3.97305 0.40024 240
20.4479 3.99284 0.463618 11
20.5542 3.97069 0.530065 3
nan nan nan nan
nan nan nan nan
21.0147 4.11163 0.645632 3
21.2402 4.08801 0.670515 3
21.4517 4.18856 0.694036 3
21.8833 4.2299 0.707654 3
nan nan nan nan
nan nan nan nan
nan nan nan nan
22.3094 4.28236 0.845896 3
nan nan nan nan
22.2856 4.29302 0.922128 3
nan nan nan nan
21.8785 4.23286 1.01933 3
21.9004 4.23468 1.05735 3
21.9836 4.26033 1.09265 3
22.269 4.29304 1.12085 3
22.4045 4.33698 1.15496 3
22.7696 4.42988 1.18119 3
nan nan nan nan
nan nan nan nan
nan nan nan nan
86.2378 16.8858 -0.499146 8
86.3344 16.5949 -0.343055 8
86.2872 16.6515 -0.17412 12
86.2321 16.6905 -0.0355585 8
97.2035 18.9229 -0.123849 13
88.9737 17.2917 0.214901 11
89.0393 17.3882 0.370609 15
96.8529 18.575 0.404707 16
82.1446 16.0987 0.788295 13
81.9296 15.7478 0.941605 21
81.8354 16.0587 1.08361 37
81.9446 15.8455 1.23132 1
84.4259 16.4506 1.35632 15
82.3047 15.9955 1.51941 11
82.3616 16.0989 1.66429 37
82.5143 15.8391 1.81395 39
82.3124 16.1461 1.95647 42
81.2952 15.6402 2.10517 38
80.8707 15.8836 2.24461 30
79.6171 15.5133 2.5253 13
82.0029 16.0136 2.83218 15
82.153 16.1144 3.12514 34
82.6207 16.2269 3.42522 28
45.3565 8.71674 3.349 36
43.3729 8.44924 4.0611 32
44.0973 8.60549 5.31451 29
43.6864 8.56686 6.45723 34
43.0898 8.53707 8.29425 33
nan nan nan nan
nan nan nan nan
nan nan nan nan
2.73397 0.514915 0.980095 42
2.80105 0.522871 1.14876 63
2.80381 0.535772 1.27862 46
2.82714 0.528629 1.36865 56
2.83217 0.528488 1.44018 59
2.84171 0.533618 1.49487 48
2.8633 0.539866 1.53686 72
2.88345 0.542601 1.56985 54
2.8855 0.551194 1.59506 66
2.90342 0.547475 1.60834 46
2.9107 0.547799 1.62555 62
2.91728 0.551458 1.64075 97
2.90751 0.556134 1.6521 41
3.09806 0.59647 1.63976 42
2.98025 0.558351 1.66483 45
2.94638 0.556952 1.67902 6
20.4029 3.89237 -0.187338 4
20.1684 3.86174 -0.086652 1
nan nan nan nan
nan nan nan nan
nan nan nan nan
20.2046 3.86855 0.195324 1
nan nan nan nan
nan nan nan nan
nan nan nan nan
20.4569 3.92045 0.464874 4
nan nan nan nan
nan nan nan nan
21.1292 3.97941 0.604316 1
21.0142 4.03538 0.647493 3
21.2397 4.01102 0.672361 1
21.4466 4.10986 0.696162 3
nan nan nan nan
nan nan nan nan
nan nan nan nan
nan nan nan nan
21.6463 4.08068 0.881923 3
nan nan nan nan
22.1238 4.1818 0.93166 3
nan nan nan nan
21.8834 4.15457 1.02072 3
21.9109 4.15343 1.05856 3
