# .PCD v0.7 - Point Cloud Data file format
VERSION 0.7
FIELDS x y z intensity
SIZE 4 4 4 4
TYPE F F F F
COUNT 1 1 1 1
WIDTH 1776
HEIGHT 1
VIEWPOINT 0 0 0 1 0 0 0
POINTS 1776
DATA ascii
16.6493 -7.62017 0.574773 4
16.6772 -7.66693 0.636174 4
16.7165 -7.68839 0.697359 4
16.7697 -7.66666 0.758346 4
16.9309 -7.74385 0.811467 4
16.9521 -7.79152 0.874868 4
17.0437 -7.84072 0.934307 8
17.216 -7.93636 0.956501 4
17.1809 -7.84935 0.992087 3
17.3004 -7.96424 1.01798 4
17.4809 -7.99377 1.04153 3
17.4397 -8.01566 1.07715 4
17.5645 -8.07112 1.10428 3
17.7511 -8.14745 1.12885 3
17.9684 -8.26431 1.15263 3
18.169 -8.36998 1.18152 3
nan nan nan nan
nan nan nan nan
28.1112 -12.8546 0.887963 3
27.8334 -12.7817 0.952554 3
nan nan nan nan
27.9292 -12.8093 1.05616 1
nan nan nan nan
28.0565 -12.875 1.15961 3
nan nan nan nan
nan nan nan nan
28.4624 -13.0064 1.31089 3
28.2245 -13.0241 1.37186 1
28.2875 -12.9134 1.42353 3
40.3486 -18.5772 1.25527 11
40.3548 -18.5431 1.34002 31
40.3936 -18.5327 1.40887 37
40.4389 -18.508 1.48527 38
40.442 -18.5152 1.56289 36
40.5384 -18.5224 1.63912 36
40.2127 -18.5501 1.72165 37
40.337 -18.4003 1.79519 37
40.2966 -18.5493 1.87526 37
40.3869 -18.4005 1.94942 37
40.3624 -18.5143 2.02894 37
40.3827 -18.4697 2.10549 37
40.4497 -18.5147 2.18351 36
40.5574 -18.5185 2.26092 36
40.208 -18.5354 2.33931 36
40.3404 -18.3893 2.41363 35
40.2991 -18.5378 2.49404 36
40.4157 -18.4011 2.56886 31
40.3926 -18.4702 2.72527 37
40.5576 -18.5231 2.88328 32
40.3237 -18.3776 3.03189 35
40.4152 -18.3968 3.18863 33
40.3434 -18.5586 3.73474 33
40.4858 -18.4949 4.51472 34
40.5091 -18.481 5.72493 32
40.5861 -18.4716 6.90741 36
40.5354 -18.3398 8.82109 37
40.4614 -18.486 10.8232 33
40.6386 -18.3027 13.7019 35
3.84542 -1.82104 0.0113697 12
5.05869 -2.36806 -0.000912189 16
6.36554 -2.98978 -0.0445819 11
7.64936 -3.55496 -0.0655601 11
8.95136 -4.18329 -0.0918314 11
10.1879 -4.76232 -0.0973496 11
11.6487 -5.43094 -0.144659 14
13.0216 -6.05947 -0.16958 10
14.472 -6.74756 -0.213961 10
15.5211 -7.19296 -0.221502 12
16.3725 -7.63665 -0.249672 17
16.9832 -7.89747 -0.217094 6
16.9029 -7.85094 -0.104241 5
16.7026 -7.73295 -0.0135257 9
16.7006 -7.71774 0.0519655 6
16.6753 -7.7649 0.11809 5
16.6669 -7.73959 0.184303 5
16.6684 -7.71541 0.249355 5
16.684 -7.70826 0.315869 5
16.644 -7.74861 0.379907 5
16.6528 -7.73133 0.443954 5
16.7022 -7.70813 0.504725 4
16.7086 -7.71803 0.568558 4
16.7183 -7.75661 0.631782 4
16.7724 -7.7816 0.69211 4
16.8018 -7.75237 0.755153 4
16.9854 -7.84061 0.806914 4
17.0063 -7.88847 0.870634 4
17.0734 -7.91946 0.93198 3
17.1747 -7.99012 0.958549 4
17.1489 -7.90721 0.993571 6
17.2499 -8.01409 1.0205 4
17.4484 -8.05268 1.04301 3
17.4239 -8.08586 1.07773 4
17.5317 -8.13031 1.10576 3
17.7362 -8.21568 1.12944 3
17.947 -8.32284 1.15356 3
18.1307 -8.42916 1.18322 3
nan nan nan nan
27.7125 -12.868 0.85078 4
27.9392 -12.894 0.894995 3
27.8363 -12.9068 0.952742 3
nan nan nan nan
27.8436 -12.8879 1.05953 3
nan nan nan nan
27.8391 -12.8931 1.16678 3
nan nan nan nan
nan nan nan nan
28.2262 -13.0177 1.31754 3
28.043 -13.0592 1.3769 1
nan nan nan nan
40.0251 -18.5979 1.26291 10
40.0287 -18.5458 1.34699 36
40.0701 -18.5539 1.41552 30
40.12 -18.5317 1.49138 37
40.123 -18.5388 1.56851 35
40.2238 -18.5486 1.64422 33
39.8893 -18.5701 1.7263 37
40.0182 -18.4239 1.79934 37
39.9732 -18.5697 1.87892 37
40.0849 -18.4237 1.95244 37
40.0571 -18.5438 2.03163 36
40.1137 -18.5162 2.10782 37
40.1307 -18.5383 2.18522 35
40.2337 -18.5406 2.26212 36
39.8892 -18.5576 2.34002 35
40.0216 -18.413 2.41386 36
39.9802 -18.5605 2.49377 34
40.0864 -18.4118 2.56779 36
40.0827 -18.4979 2.72371 38
40.2384 -18.5473 2.8806 31
39.9959 -18.3971 3.02798 32
40.0814 -18.4055 3.18331 37
40.0245 -18.5814 3.72666 33
40.158 -18.5147 4.50121 32
40.1862 -18.5033 5.70402 30
40.2592 -18.4926 6.87853 36
nan nan nan nan
40.1379 -18.5077 10.7696 33
40.3086 -18.3149 13.6271 35
3.84323 -1.83648 0.00951076 12
5.04199 -2.38177 0.0028435 12
6.35951 -3.01412 -0.0455315 12
7.63701 -3.58172 -0.0650163 11
8.93312 -4.21094 -0.0901856 10
10.1758 -4.80003 -0.0975444 13
11.6297 -5.47165 -0.14383 11
13.0005 -6.10497 -0.168653 13
14.4529 -6.80023 -0.21362 10
15.4915 -7.24508 -0.219753 11
nan nan nan nan
16.9301 -7.94118 -0.212411 5
16.8305 -7.88889 -0.0974145 5
16.6891 -7.79759 -0.0139747 4
16.7502 -7.8118 0.0441779 5
16.7068 -7.85062 0.112643 4
16.7119 -7.83156 0.177601 5
16.7091 -7.80522 0.243404 5
16.7292 -7.8002 0.309734 5
16.6936 -7.84271 0.373598 5
16.6935 -7.82117 0.438786 5
16.7476 -7.80011 0.499411 5
16.754 -7.81007 0.563523 5
16.7634 -7.84879 0.62703 4
16.8085 -7.86975 0.688348 4
16.8651 -7.85313 0.749613 4
17.0303 -7.93362 0.803013 3
17.0421 -7.97744 0.86762 1
16.9991 -7.96085 0.936096 4
17.2055 -8.07764 0.956191 3
17.2299 -8.01762 0.988381 4
17.2897 -8.10609 1.01786 4
17.4202 -8.11357 1.04425 5
17.4151 -8.15209 1.07794 4
17.5214 -8.19995 1.10608 3
17.7165 -8.2818 1.13026 3
17.9164 -8.38859 1.1549 3
18.1012 -8.49242 1.18451 3
27.6691 -12.8736 0.79932 3
nan nan nan nan
27.7673 -12.9324 0.902011 3
27.8794 -13.0392 0.951375 3
27.6919 -12.9493 1.01181 3
29.6821 -13.8648 0.997656 4
27.7849 -13.006 1.1156 3
27.8166 -13.0008 1.16808 3
27.8097 -12.9716 1.22169 3
27.891 -13.0132 1.27312 3
28.0401 -13.0507 1.32295 3
27.8683 -13.0905 1.38172 3
27.9293 -12.9862 1.433 3
39.7156 -18.6229 1.27027 10
39.7205 -18.5801 1.3539 31
39.7561 -18.5772 1.42201 36
39.8013 -18.5533 1.49745 32
39.7998 -18.5583 1.57414 33
39.9005 -18.5686 1.64936 31
39.5741 -18.5833 1.73074 37
39.6952 -18.4433 1.80348 36
39.6546 -18.5903 1.88253 36
39.7664 -18.4456 1.95558 37
39.7384 -18.5649 2.03427 35
39.7995 -18.54 2.10999 37
39.821 -18.5642 2.18693 32
39.9104 -18.5607 2.26329 36
39.5694 -18.5687 2.34051 32
39.6986 -18.4325 2.41402 36
39.6616 -18.5811 2.49348 33
39.786 -18.4423 2.56728 30
39.7641 -18.5195 2.72196 33
39.9105 -18.5652 2.87769 37
39.6729 -18.4166 3.02416 32
39.7765 -18.4339 3.17904 31
39.715 -18.6065 3.71894 34
39.8531 -18.543 4.48909 37
39.8682 -18.5257 5.68348 36
39.9371 -18.5136 6.85016 34
22.9992 -10.601 5.88473 15
39.8236 -18.5314 10.7179 32
39.9889 -18.3381 13.5562 33
3.8369 -1.84997 0.00978613 12
5.0295 -2.39741 0.00490093 13
6.34905 -3.03638 -0.0450766 11
7.62457 -3.60844 -0.0644717 11
8.91848 -4.24218 -0.0895479 14
10.1591 -4.8356 -0.096818 12
11.6107 -5.51229 -0.143 13
12.9871 -6.1569 -0.169178 12
14.4292 -6.85072 -0.212589 10
15.4483 -7.29073 -0.216068 10
15.965 -7.58272 -0.198429 20
16.9158 -8.00668 -0.212971 6
16.7881 -7.94423 -0.0944686 4
16.7698 -7.90675 -0.0258622 6
16.7905 -7.90207 0.037457 5
16.7648 -7.94944 0.104146 6
16.7687 -7.93326 0.169491 5
16.7719 -7.90601 0.235086 6
16.7786 -7.89466 0.303152 5
16.7382 -7.93512 0.367741 4
16.7413 -7.91857 0.432842 5
16.7068 -7.85221 0.50182 5
16.8078 -7.90676 0.557723 4
16.8487 -7.96054 0.61895 4
16.8653 -7.97184 0.682889 4
16.937 -7.95868 0.743414 4
17.1155 -8.04615 0.796253 1
nan nan nan nan
nan nan nan nan
17.281 -8.18685 0.951092 1
17.1838 -8.06926 0.990673 4
17.3336 -8.2006 1.01497 4
17.3647 -8.1616 1.04699 4
17.495 -8.26403 1.07341 4
17.5108 -8.26962 1.1064 3
17.7191 -8.35853 1.12996 3
17.9036 -8.46276 1.15539 3
18.0264 -8.5342 1.18784 3
27.6467 -12.9807 0.800304 3
nan nan nan nan
28.0114 -13.1653 0.892504 4
29.872 -14.0982 0.876436 3
29.712 -14.0203 0.939822 5
29.7828 -14.0387 0.994715 4
29.5808 -13.979 1.05879 5
nan nan nan nan
nan nan nan nan
nan nan nan nan
27.999 -13.1507 1.32484 3
27.8789 -13.2204 1.3825 3
27.9427 -13.1113 1.43379 3
39.4018 -18.6438 1.27768 9
39.4036 -18.6081 1.36092 36
39.4423 -18.5986 1.42846 31
39.4875 -18.5751 1.50343 37
39.4905 -18.5822 1.57959 30
39.582 -18.5887 1.65443 36
39.2572 -18.6104 1.73539 36
39.3771 -18.4629 1.80756 34
39.3409 -18.611 1.88609 35
39.4449 -18.4725 1.95883 32
39.4246 -18.5862 2.03689 34
39.4857 -18.5618 2.11213 37
39.5026 -18.5838 2.18858 30
39.5873 -18.5788 2.26442 36
39.2571 -18.5979 2.34136 32
39.3805 -18.4521 2.41419 34
39.3478 -18.6019 2.4932 32
39.4555 -18.465 2.5665 37
39.4549 -18.5433 2.72034 34
39.6011 -18.5896 2.87514 30
39.3549 -18.4361 3.02042 34
39.4687 -18.4672 3.17487 37
39.3923 -18.6232 3.71059 34
39.5395 -18.5652 4.47636 37
39.546 -18.544 5.6625 28
39.6244 -18.5368 6.82285 34
39.5693 -18.4039 8.69914 33
39.5185 -18.5574 10.6682 30
39.6707 -18.3682 13.4867 32
3.83052 -1.86343 0.0100619 13
5.02121 -2.41503 0.00526106 12
6.3342 -3.05652 -0.0432186 12
7.61642 -3.63721 -0.0651214 12
8.90814 -4.27548 -0.0899491 11
10.1423 -4.87112 -0.0960906 14
11.587 -5.55074 -0.141344 12
12.9701 -6.20442 -0.168997 13
14.4053 -6.90113 -0.211557 10
15.4319 -7.34896 -0.216255 9
15.9072 -7.62347 -0.192955 13
nan nan nan nan
16.7739 -8.00929 -0.094954 5
16.8499 -8.01657 -0.0377333 10
16.8662 -8.00978 0.0265293 6
16.7774 -8.02729 0.100758 6
16.8847 -8.0604 0.154935 6
16.9151 -8.04583 0.218231 6
16.9039 -8.02588 0.288816 5
16.9352 -8.10099 0.346932 6
16.871 -8.05212 0.41924 0
16.7829 -7.95966 0.493683 5
16.9063 -8.02532 0.548053 5
16.9245 -8.06869 0.611629 4
16.9455 -8.08224 0.675617 4
16.9813 -8.052 0.739246 4
nan nan nan nan
17.2114 -8.20364 0.855001 1
nan nan nan nan
17.365 -8.30099 0.945459 3
17.2323 -8.16558 0.987371 3
17.3815 -8.29767 1.01183 3
17.4219 -8.26287 1.0435 4
17.5653 -8.37233 1.06938 3
17.5044 -8.34146 1.1065 4
17.717 -8.43324 1.12989 3
17.9146 -8.54459 1.15474 3
18.0416 -8.61863 1.18709 1
27.6239 -13.0879 0.801293 3
nan nan nan nan
nan nan nan nan
nan nan nan nan
29.9066 -14.24 0.933222 4
29.7969 -14.1726 0.994702 3
29.6176 -14.123 1.05817 5
29.869 -14.215 1.10775 3
29.9489 -14.225 1.16306 3
nan nan nan nan
27.9484 -13.2462 1.32694 3
27.8642 -13.3328 1.38379 3
27.9284 -13.2237 1.43514 3
39.1967 -18.7145 1.28306 11
39.185 -18.6724 1.36623 34
39.2147 -18.6588 1.43364 38
39.2283 -18.6206 1.5087 29
39.2313 -18.6277 1.58448 32
39.2549 -18.6026 1.65955 38
39.1966 -18.7495 1.73817 34
39.2853 -18.5874 1.8105 37
39.208 -18.7159 1.8891 36
39.2808 -18.563 1.96175 36
39.2512 -18.6722 2.0396 35
39.2535 -18.6202 2.11447 36
39.2433 -18.6294 2.19046 33
39.2737 -18.5991 2.26558 34
39.2009 -18.7391 2.34425 36
39.2796 -18.5723 2.41662 37
39.2285 -18.7132 2.49533 34
39.2913 -18.5556 2.56787 37
39.2634 -18.6208 2.72084 40
39.2965 -18.6143 2.87265 37
39.3083 -18.5819 3.0237 38
39.3226 -18.5664 3.17526 39
39.2773 -18.7368 3.71125 35
39.2803 -18.6111 4.467 39
39.3097 -18.6008 5.64943 35
39.3346 -18.5687 6.79826 35
39.3747 -18.4807 8.67994 38
39.4619 -18.699 10.6729 35
39.5356 -18.4733 13.4692 35
nan nan nan nan
5.00862 -2.43057 0.00731838 12
6.3236 -3.07869 -0.0427635 12
7.60816 -3.66596 -0.0657699 11
8.89327 -4.30663 -0.0893099 12
10.1209 -4.90443 -0.0944431 11
11.5766 -5.59553 -0.142163 13
12.9707 -6.26048 -0.171809 12
14.3768 -6.9493 -0.209836 11
15.4152 -7.40716 -0.216439 8
15.8315 -7.65526 -0.185011 25
nan nan nan nan
nan nan nan nan
16.9518 -8.13781 -0.052309 23
16.8965 -8.09662 0.0208862 11
16.9913 -8.20262 0.0744585 9
17.0762 -8.22516 0.132037 39
17.0171 -8.16736 0.205674 9
16.9702 -8.13009 0.280437 5
16.9787 -8.19474 0.34111 5
17.2559 -8.30988 0.381581 11
16.8495 -8.06343 0.486372 5
16.9457 -8.11665 0.543445 5
16.9772 -8.16666 0.606175 4
16.9846 -8.17383 0.671537 4
17.0477 -8.1565 0.733411 4
17.2796 -8.27113 0.783103 5
17.2861 -8.31344 0.849318 9
17.2779 -8.31685 0.916855 4
17.5024 -8.44184 0.936551 1
nan nan nan nan
nan nan nan nan
17.4786 -8.36464 1.04002 3
17.626 -8.4769 1.06585 1
17.5383 -8.43283 1.10452 4
17.7595 -8.52965 1.1276 4
17.9072 -8.61792 1.15496 3
nan nan nan nan
27.5871 -13.1886 0.802875 3
nan nan nan nan
28.8474 -13.8051 0.859676 5
nan nan nan nan
29.3208 -14.0868 0.954546 3
28.8326 -13.8376 1.02779 5
29.6538 -14.2675 1.05756 3
29.7427 -14.2824 1.11218 3
29.9126 -14.3359 1.16482 3
27.8524 -13.3521 1.2765 3
27.9922 -13.3868 1.32676 3
27.8626 -13.4517 1.38479 3
27.9047 -13.3319 1.43667 5
39.1987 -18.8838 1.28463 13
39.1782 -18.8373 1.36809 39
39.2034 -18.8215 1.43567 40
39.2127 -18.7812 1.51088 39
39.2111 -18.7861 1.58681 39
39.2303 -18.7589 1.662 39
39.1759 -18.9079 1.74068 38
39.2518 -18.7395 1.81315 40
39.183 -18.8721 1.8918 35
39.2654 -18.7237 1.9645 40
39.2218 -18.8263 2.04245 37
39.2379 -18.7808 2.11743 41
39.2276 -18.79 2.19351 38
39.2537 -18.7576 2.26869 36
39.1893 -18.9019 2.34754 41
39.2687 -18.7351 2.42 36
39.2125 -18.8738 2.49877 42
39.2849 -18.7206 2.57153 39
39.2568 -18.7858 2.72473 41
39.2809 -18.775 2.87657 40
39.3018 -18.7469 3.02804 40
39.3161 -18.7314 3.17982 40
39.2701 -18.9019 3.71662 40
39.2691 -18.7738 4.47321 40
39.3298 -18.7785 5.66019 40
39.3366 -18.7377 6.8093 34
22.7658 -10.7836 5.86912 12
39.4092 -18.8426 10.6787 39
39.501 -18.6251 13.4809 39
3.40834 -1.68753 0.226023 6
5.00866 -2.45226 0.00428617 13
6.31292 -3.10083 -0.0423079 12
7.59543 -3.69258 -0.0652235 11
8.87829 -4.33773 -0.08867 11
10.1082 -4.94197 -0.0946341 14
11.5527 -5.63383 -0.140506 12
12.9444 -6.30364 -0.170129 13
14.357 -7.0017 -0.20949 12
15.4206 -7.47615 -0.219843 4
15.8137 -7.71491 -0.185109 25
nan nan nan nan
15.9447 -7.7506 0.00452256 11
nan nan nan nan
17.1189 -8.27688 -0.00739002 29
15.9028 -7.74589 0.196308 28
17.0788 -8.30001 0.129822 12
17.0648 -8.26366 0.19883 29
17.157 -8.2934 0.259755 6
17.2232 -8.387 0.315522 9
17.1865 -8.35052 0.38662 8
16.9066 -8.16343 0.479885 5
17.0251 -8.22788 0.535359 4
17.0697 -8.28469 0.597404 4
17.0682 -8.28757 0.663943 4
17.109 -8.25938 0.727926 4
17.3001 -8.35532 0.780845 5
nan nan nan nan
nan nan nan nan
17.5133 -8.52258 0.935342 1
nan nan nan nan
nan nan nan nan
17.5618 -8.47994 1.03507 1
17.7582 -8.61686 1.0585 1
17.6121 -8.54415 1.10047 4
17.8106 -8.63082 1.12488 4
17.9175 -8.70004 1.15433 3
nan nan nan nan
27.5635 -13.2957 0.803873 3
nan nan nan nan
nan nan nan nan
nan nan nan nan
28.7633 -13.9428 0.974829 4
28.7617 -13.9273 1.03062 4
28.6461 -13.9061 1.09023 3
nan nan nan nan
nan nan nan nan
27.8147 -13.4536 1.27826 3
27.9589 -13.491 1.32844 3
27.8604 -13.5708 1.3858 3
nan nan nan nan
39.218 -19.062 1.28589 13
39.1797 -19.0066 1.36981 39
39.214 -18.9953 1.43738 40
39.2234 -18.9549 1.51274 41
39.2219 -18.9598 1.58881 39
39.2502 -18.937 1.66407 39
39.1907 -19.0839 1.74296 39
39.2672 -18.9154 1.81558 39
39.2024 -19.0503 1.89437 39
39.2764 -18.8975 1.96725 38
39.2324 -19.0002 2.04534 39
39.2487 -18.9546 2.12047 39
39.2428 -18.9659 2.19673 38
39.2735 -18.9357 2.27209 40
39.2085 -19.0801 2.35111 37
39.2887 -18.9132 2.42373 40
39.2363 -19.0542 2.50273 42
39.3049 -18.8987 2.57559 38
39.2765 -18.9639 2.72913 40
39.3006 -18.9532 2.8813 41
39.3217 -18.9251 3.03309 39
39.336 -18.9096 3.18521 41
39.2847 -19.078 3.72298 40
39.2976 -18.9562 4.48199 40
39.3356 -18.9501 5.66971 41
39.3558 -18.9156 6.82254 40
39.4225 -18.8398 8.71595 36
39.409 -19.0116 10.6961 37
39.505 -18.7956 13.5041 36
3.39039 -1.69343 0.232667 5
5.00017 -2.46981 0.00464761 13
6.30217 -3.12293 -0.0418518 12
7.57824 -3.71701 -0.0634828 11
8.8632 -4.36878 -0.0880299 11
10.091 -4.97731 -0.093905 12
11.533 -5.6742 -0.139673 13
12.9225 -6.34887 -0.169196 12
14.3015 -7.03655 -0.203645 17
15.4524 -7.55835 -0.227107 4
15.7512 -7.75261 -0.179026 34
15.7462 -7.72436 -0.0688498 5
15.8195 -7.75816 0.0180082 32
nan nan nan nan
nan nan nan nan
15.8177 -7.77291 0.204066 39
nan nan nan nan
17.1701 -8.38881 0.185834 10
17.2264 -8.40133 0.250959 8
17.1582 -8.42956 0.320276 6
17.1439 -8.40394 0.389123 7
17.008 -8.28576 0.469365 4
17.1262 -8.35069 0.525354 4
17.099 -8.37277 0.593827 4
17.1557 -8.40419 0.656013 4
17.1519 -8.35405 0.723796 3
nan nan nan nan
nan nan nan nan
nan nan nan nan
nan nan nan nan
nan nan nan nan
18.1277 -8.88832 0.96789 3
17.9182 -8.72939 1.01501 1
17.8222 -8.72492 1.05476 3
17.6944 -8.66048 1.09598 3
17.8881 -8.74561 1.12084 4
17.9499 -8.79332 1.15264 3
nan nan nan nan
27.6068 -13.4356 0.801941 3
nan nan nan nan
nan nan nan nan
28.2091 -13.7984 0.940163 4
28.5484 -13.962 0.98284 4
28.4615 -13.9048 1.0412 3
nan nan nan nan
nan nan nan nan
nan nan nan nan
27.8575 -13.5945 1.27792 3
27.9566 -13.6104 1.32937 3
27.9071 -13.7142 1.38572 3
nan nan nan nan
39.2411 -19.2428 1.28707 17
39.2075 -19.1894 1.37111 40
39.2373 -19.176 1.4389 40
39.2469 -19.1355 1.51444 42
39.2408 -19.1383 1.59074 35
39.2693 -19.1154 1.66616 40
39.2091 -19.2625 1.74522 37
39.2864 -19.0939 1.818 40
39.2209 -19.2288 1.89697 35
39.2957 -19.0759 1.97 39
39.2512 -19.1787 2.04827 38
39.2677 -19.1331 2.12355 39
39.2618 -19.1444 2.19998 38
39.2881 -19.112 2.27547 40
39.2225 -19.2564 2.35466 40
39.3078 -19.0917 2.42748 40
39.2459 -19.2284 2.50654 41
39.3197 -19.075 2.5796 41
39.2909 -19.1403 2.73346 40
39.3106 -19.1274 2.88584 40
39.3318 -19.0993 3.03793 40
39.3462 -19.0838 3.19035 39
39.2941 -19.2523 3.72917 40
39.3164 -19.1346 4.49021 41
39.3363 -19.1198 5.67882 42
39.3474 -19.0808 6.83251 36
39.4229 -19.0092 8.73018 36
39.4214 -19.1873 10.7165 35
39.517 -18.9705 13.5298 40
3.32801 -1.67682 0.262763 4
4.99163 -2.48733 0.00500929 13
6.28705 -3.14284 -0.0399935 12
7.56968 -3.74568 -0.0641289 12
8.84363 -4.3976 -0.0863507 11
10.0737 -5.01258 -0.0931754 14
11.5133 -5.71451 -0.13884 11
12.9003 -6.39402 -0.168262 13
14.2371 -7.0667 -0.196431 5
15.4305 -7.61452 -0.226635 8
15.662 -7.77673 -0.169243 36
15.7104 -7.77495 -0.0665383 17
15.7346 -7.78476 0.0264364 47
15.6758 -7.72817 0.0963869 32
15.7673 -7.75937 0.147593 0
15.7237 -7.79502 0.212834 23
15.87 -7.85002 0.25897 30
17.1988 -8.47737 0.180913 6
17.2239 -8.47467 0.249467 9
17.1377 -8.49389 0.320638 3
17.1459 -8.47925 0.38741 3
17.1625 -8.43527 0.454014 4
17.1552 -8.43909 0.521559 3
17.1637 -8.47882 0.587305 4
17.2069 -8.50384 0.650917 4
17.2302 -8.46673 0.716998 3
nan nan nan nan
nan nan nan nan
nan nan nan nan
17.7532 -8.79318 0.919546 3
17.8742 -8.77752 0.947516 3
17.9713 -8.88957 0.976368 3
17.8383 -8.76767 1.01903 3
17.9082 -8.84459 1.04984 3
17.7671 -8.77307 1.09197 3
17.983 -8.86988 1.11594 4
17.9147 -8.85373 1.15414 3
nan nan nan nan
27.5643 -13.5341 0.803735 4
27.8203 -13.754 0.846722 4
27.993 -13.7582 0.893978 4
28.1742 -13.9034 0.941692 5
28.3337 -13.9797 0.990828 5
28.368 -13.982 1.04477 5
nan nan nan nan
28.5203 -14.0647 1.15063 3
nan nan nan nan
27.8413 -13.7071 1.27911 3
27.9314 -13.7189 1.33084 3
27.8502 -13.8071 1.38793 3
nan nan nan nan
39.241 -19.4129 1.28868 29
39.212 -19.3616 1.37278 40
39.2375 -19.346 1.44077 40
39.2517 -19.3077 1.51638 40
39.2501 -19.3126 1.59277 40
39.2696 -19.2855 1.66842 40
39.2088 -19.4325 1.74762 40
39.2914 -19.2661 1.82049 39
39.2208 -19.3988 1.89962 39
39.3007 -19.2481 1.97277 39
39.2513 -19.3487 2.05118 38
39.268 -19.3031 2.1266 43
39.2665 -19.3166 2.20317 38
39.293 -19.2843 2.27881 35
39.2267 -19.4287 2.35814 42
39.3128 -19.264 2.43109 40
39.2502 -19.4007 2.5103 41
39.3202 -19.2451 2.58343 41
39.2956 -19.3125 2.73763 40
39.3153 -19.2997 2.89029 41
39.3366 -19.2715 3.04266 39
39.3556 -19.2583 3.19549 39
39.3027 -19.4269 3.73536 35
39.3164 -19.3046 4.49731 40
39.363 -19.3028 5.69046 41
39.3607 -19.2571 6.84524 40
39.4315 -19.1831 8.74594 38
39.4285 -19.3611 10.7359 39
39.5414 -19.1521 13.5594 40
3.31848 -1.68587 0.265125 4
4.98302 -2.50482 0.00537133 13
6.27614 -3.16485 -0.0395372 12
7.55667 -3.77216 -0.063581 12
8.84146 -4.4351 -0.0888236 12
10.0563 -5.0478 -0.0924449 12
11.4934 -5.75475 -0.138006 13
12.8781 -6.43909 -0.167328 12
14.1517 -7.08291 -0.18584 5
15.4084 -7.67063 -0.226163 12
15.6615 -7.84477 -0.171811 35
15.6744 -7.82539 -0.0642271 33
15.6674 -7.81974 0.0326165 35
15.6666 -7.79177 0.0953486 22
15.6422 -7.76576 0.160296 33
15.6119 -7.80766 0.223624 30
15.7802 -7.87433 0.266988 32
15.9436 -7.92785 0.312357 10
nan nan nan nan
17.3441 -8.67174 0.298638 4
17.2544 -8.60805 0.375594 3
17.2044 -8.53061 0.448789 4
17.2775 -8.57435 0.509656 4
17.2679 -8.60543 0.577476 4
17.3289 -8.63956 0.640208 4
17.3034 -8.57784 0.710552 3
nan nan nan nan
17.6422 -8.79 0.822555 7
17.7411 -8.84701 0.885177 3
17.7434 -8.85786 0.919611 9
17.8033 -8.81994 0.951189 3
17.8196 -8.89206 0.984573 3
17.8211 -8.83657 1.01958 3
17.8951 -8.91598 1.05018 0
17.8751 -8.90408 1.08613 4
18.0727 -8.9927 1.11127 3
nan nan nan nan
nan nan nan nan
27.5125 -13.6281 0.80592 3
27.7811 -13.8556 0.848363 3
28.1328 -13.9491 0.888546 5
28.1614 -14.0195 0.94238 6
28.1014 -13.9873 0.999433 4
28.2699 -14.0565 1.04848 6
28.6467 -14.2789 1.09172 6
28.7555 -14.2995 1.14416 6
28.6801 -14.2409 1.20219 5
nan nan nan nan
27.9416 -13.8452 1.33146 3
nan nan nan nan
nan nan nan nan
39.2625 -19.5944 1.2899 37
39.2158 -19.534 1.37447 39
39.2537 -19.5161 1.44231 41
39.2603 -19.4824 1.51827 38
39.2586 -19.4873 1.59481 39
39.2828 -19.4624 1.67057 39
39.2258 -19.6117 1.74991 38
39.3046 -19.443 1.82296 39
39.2334 -19.5758 1.90225 39
39.314 -19.425 1.97555 39
39.272 -19.521 2.05399 39
39.2855 -19.4822 2.12971 38
39.275 -19.4913 2.20641 39
39.3061 -19.4612 2.28222 39
39.2391 -19.6057 2.36172 37
39.326 -19.4409 2.43482 40
39.2672 -19.5799 2.51425 41
39.3379 -19.4242 2.58753 39
39.313 -19.4917 2.74207 41
39.3373 -19.4811 2.89517 42
39.3587 -19.453 3.04789 40
39.3688 -19.4353 3.20079 39
39.3195 -19.6062 3.74197 40
39.3281 -19.4724 4.50485 41
39.379 -19.4729 5.70072 40
39.4044 -19.4492 6.86183 41
39.4616 -19.3682 8.76552 36
39.4394 -19.5374 10.7564 38
39.5388 -19.3213 13.5813 40
3.31267 -1.69751 0.265367 5
4.97015 -2.52015 0.00742877 16
6.26517 -3.18682 -0.0390804 13
7.54356 -3.7986 -0.0630326 11
8.82603 -4.46602 -0.088181 11
10.0387 -5.08295 -0.0917141 17
11.4733 -5.79491 -0.137171 11
12.838 -6.47519 -0.163407 13
14.0606 -7.09887 -0.17452 8
15.3728 -7.72 -0.223759 20
15.6651 -7.91514 -0.174992 38
15.6826 -7.89799 -0.0677834 40
15.6623 -7.88563 0.0309544 37
15.6572 -7.8554 0.094314 33
15.6685 -7.84711 0.155126 36
15.598 -7.86889 0.223235 35
15.7038 -7.90482 0.273527 25
15.8982 -7.97459 0.315406 31
nan nan nan nan
17.4117 -8.78162 0.290257 4
17.3356 -8.72428 0.366324 4
17.295 -8.65088 0.439136 4
17.3546 -8.68824 0.501637 4
17.3388 -8.72023 0.570311 4
17.3923 -8.7471 0.634088 4
17.3582 -8.68063 0.705459 3
17.7085 -8.85977 0.748466 4
17.6768 -8.88827 0.819413 7
17.8796 -8.99417 0.875764 3
17.7911 -8.9633 0.916052 4
17.7903 -8.89099 0.951421 3
17.8019 -8.96098 0.9851 1
17.9287 -8.96804 1.01321 8
18.0781 -9.08604 1.04005 1
17.9807 -9.03909 1.08039 1
18.1663 -9.11849 1.1064 1
nan nan nan nan
nan nan nan nan
27.6033 -13.7933 0.801878 3
27.7237 -13.948 0.85075 4
28.1243 -14.0674 0.888989 5
27.7595 -13.9406 0.957718 6
28.0679 -14.0992 1.00093 5
nan nan nan nan
nan nan nan nan
27.8074 -13.9493 1.17307 11
nan nan nan nan
nan nan nan nan
27.9513 -13.9717 1.33209 3
nan nan nan nan
39.3472 -19.6567 1.2118 9
39.2832 -19.7763 1.29113 41
39.2681 -19.7314 1.37539 41
39.2658 -19.6933 1.44401 42
39.2725 -19.6596 1.52013 41
39.2753 -19.6668 1.59678 39
39.2817 -19.6329 1.67285 41
39.2241 -19.7823 1.75233 41
39.3181 -19.6294 1.82556 40
39.2542 -19.7575 1.90488 41
39.3355 -19.6067 1.97834 39
39.2885 -19.7005 2.05695 38
39.3022 -19.6617 2.13284 41
39.2961 -19.673 2.20972 40
39.3229 -19.6407 2.28568 39
39.2598 -19.7875 2.36539 42
39.3395 -19.6273 2.43875 41
39.2835 -19.7595 2.51821 40
39.3594 -19.6059 2.59172 40
39.3252 -19.669 2.74644 40
39.3495 -19.6584 2.89985 40
39.3721 -19.6394 3.05314 38
39.408 -19.626 3.20692 40
39.3222 -19.7792 3.74799 39
39.4295 -19.6942 4.51854 34
39.4622 -19.6856 5.71785 36
39.3894 -19.613 6.87128 41
42.7732 -21.1881 9.3501 8
39.4538 -19.7162 10.7778 33
41.7474 -20.5811 14.2528 20
3.29045 -1.7014 0.274147 5
4.96143 -2.53757 0.00779104 13
6.25411 -3.20876 -0.0386231 13
7.53037 -3.82499 -0.062484 12
8.81485 -4.4991 -0.0885754 11
10.035 -5.12299 -0.0937715 11
11.4531 -5.83501 -0.136336 13
12.8154 -6.52004 -0.162472 11
13.9905 -7.12796 -0.166587 13
15.4387 -7.82077 -0.23614 14
15.6728 -7.98789 -0.178783 39
15.6816 -7.96625 -0.0701606 41
15.6614 -7.95382 0.0287366 45
15.6697 -7.93028 0.0905713 41
15.6633 -7.91304 0.153639 42
15.6606 -7.96573 0.214166 32
15.6141 -7.92811 0.28153 34
15.8081 -7.99863 0.32318 40
16.0235 -8.09331 0.366858 3
17.5247 -8.91159 0.277449 4
17.4562 -8.86147 0.353287 4
17.4027 -8.78086 0.427887 4
17.4666 -8.82076 0.490549 4
17.4522 -8.84987 0.55972 4
17.5085 -8.88227 0.623771 4
17.4704 -8.81313 0.696039 3
17.7399 -8.95306 0.745323 4
17.8076 -9.0281 0.80988 7
17.768 -9.0159 0.882127 4
nan nan nan nan
17.7503 -8.94857 0.95324 4
nan nan nan nan
nan nan nan nan
18.1711 -9.21233 1.03471 3
18.0933 -9.17094 1.0743 3
nan nan nan nan
nan nan nan nan
nan nan nan nan
27.5819 -13.9031 0.802716 3
27.666 -14.0402 0.853137 4
28.1197 -14.188 0.889263 6
27.7776 -14.0713 0.957216 3
27.9274 -14.1448 1.00622 5
27.8233 -14.0776 1.06432 0
27.7397 -14.0694 1.12153 8
27.8142 -14.0805 1.17346 4
27.8752 -14.0846 1.226 4
nan nan nan nan
27.9738 -14.1053 1.3324 1
39.213 -19.9529 1.14084 43
39.3444 -19.8185 1.21326 37
39.2541 -19.9337 1.29326 37
39.2703 -19.9045 1.3771 40
39.2826 -19.8823 1.44574 38
39.3019 -19.8461 1.52178 40
39.2913 -19.8466 1.59876 39
39.3156 -19.8217 1.67485 40
39.2528 -19.9689 1.75456 41
39.3377 -19.8023 1.8279 40
39.2608 -19.9329 1.90755 35
39.3472 -19.7843 1.98115 39
39.2964 -19.885 2.06007 37
39.3137 -19.8393 2.13596 37
39.3075 -19.8506 2.21301 39
39.3344 -19.8183 2.28912 40
39.2618 -19.9606 2.36892 40
39.3456 -19.7935 2.44226 40
39.2856 -19.9327 2.52201 40
39.3622 -19.7791 2.59565 40
39.3277 -19.8422 2.75066 40
39.3386 -19.8249 2.90404 39
39.3648 -19.799 3.05742 39
39.3526 -19.7701 3.21019 40
39.3331 -19.9569 3.75443 36
39.5263 -19.9238 4.53239 20
39.5231 -19.8972 5.73347 30
39.396 -19.7881 6.8835 36
42.7466 -21.3515 9.36065 11
39.4588 -19.8909 10.7972 39
41.705 -20.7412 14.2647 29
3.28859 -1.71504 0.272257 5
4.94847 -2.55279 0.00984824 13
6.24298 -3.23065 -0.0381658 12
7.51708 -3.85134 -0.0619347 12
8.79051 -4.52545 -0.0858576 11
10.0207 -5.16208 -0.093919 17
11.4328 -5.87504 -0.1355 11
12.8015 -6.56933 -0.163029 10
13.9216 -7.15419 -0.158711 14
15.5307 -7.93562 -0.252361 23
15.6671 -8.05398 -0.180721 40
15.6847 -8.03686 -0.0731192 43
15.6646 -8.02437 0.0259646 41
15.6641 -7.9963 0.0890033 43
15.6578 -7.97903 0.152156 46
15.6403 -8.02768 0.214351 28
15.613 -7.99624 0.279731 57
15.7181 -8.02214 0.330947 25
15.9509 -8.12664 0.372568 3
16.0871 -8.25517 0.41749 14
17.5406 -8.98145 0.343634 4
17.4875 -8.90039 0.418675 4
17.5601 -8.94511 0.481024 4
17.5856 -8.99478 0.547374 4
17.5796 -8.99563 0.616983 3
17.5418 -8.92615 0.689643 3
17.762 -9.04215 0.742823 4
nan nan nan nan
nan nan nan nan
18.0776 -9.27044 0.897208 1
nan nan nan nan
nan nan nan nan
nan nan nan nan
22.1546 -11.3283 0.821665 7
18.1546 -9.2818 1.07082 3
22.4353 -11.4577 0.894767 3
nan nan nan nan
22.7427 -11.6553 0.973145 5
nan nan nan nan
nan nan nan nan
nan nan nan nan
39.388 -20.1241 0.519992 8
27.7889 -14.1968 1.01143 4
39.3839 -20.0991 0.674517 10
nan nan nan nan
39.2763 -20.0558 0.832149 4
39.2486 -20.0043 0.909693 5
39.2924 -20.0324 0.985474 31
39.3169 -19.9989 1.06153 37
39.25 -20.1444 1.14136 30
39.3374 -19.9874 1.21487 39
39.2733 -20.1162 1.29451 42
39.2763 -20.0802 1.37876 41
39.2843 -20.0556 1.4476 41
39.3081 -20.0218 1.52371 41
39.2975 -20.0222 1.60085 39
39.3175 -19.995 1.67712 41
39.263 -20.1469 1.75692 38
39.3441 -19.978 1.83043 41
39.2711 -20.1108 1.91022 39
39.3537 -19.96 1.98397 39
39.3069 -20.063 2.06305 39
39.3244 -20.0172 2.1391 38
39.3182 -20.0285 2.21631 38
39.3452 -19.9963 2.29257 37
39.2764 -20.1409 2.37258 37
39.3654 -19.976 2.44612 36
39.3004 -20.1129 2.526 36
39.3776 -19.9592 2.5998 38
39.3473 -20.0246 2.75523 37
39.3583 -20.0073 2.90896 39
39.3845 -19.9814 3.06268 35
39.368 -19.9502 3.21566 40
39.3609 -20.144 3.76167 41
39.5454 -20.1068 4.54098 17
39.5155 -20.0664 5.74224 17
39.4151 -19.9701 6.89738 38
42.72 -21.5247 9.37214 23
39.4761 -20.0726 10.8196 40
41.6836 -20.9122 14.283 26
3.28268 -1.72658 0.272499 10
4.93963 -2.57013 0.0102109 16
6.23177 -3.2525 -0.0377078 12
7.51232 -3.8821 -0.0637684 12
8.77043 -4.55394 -0.0841773 10
9.99397 -5.19257 -0.0913515 12
11.4167 -5.91726 -0.135485 13
12.7786 -6.61406 -0.162093 13
13.8615 -7.18459 -0.152211 10
15.5911 -8.03531 -0.264068 23
15.6654 -8.1224 -0.183269 40
15.6434 -8.0848 -0.0702155 33
15.6498 -8.08592 0.0254332 40
15.6495 -8.05783 0.0885224 38
15.6565 -8.04735 0.150154 36
15.6299 -8.09144 0.213469 41
15.6205 -8.06902 0.276957 37
15.6592 -8.06107 0.3354 35
15.8782 -8.15955 0.378272 3
nan nan nan nan
17.642 -9.11126 0.332319 4
17.5894 -9.02973 0.40787 4
17.6841 -9.08617 0.468821 4
17.696 -9.12931 0.536892 4
17.7521 -9.16221 0.602154 10
17.6571 -9.06256 0.679931 4
nan nan nan nan
17.9483 -9.2575 0.798766 1
nan nan nan nan
18.1916 -9.40922 0.88956 1
nan nan nan nan
18.2263 -9.41521 0.959221 3
nan nan nan nan
nan nan nan nan
22.282 -11.4896 0.858176 3
nan nan nan nan
22.4988 -11.612 0.935423 9
nan nan nan nan
nan nan nan nan
nan nan nan nan
nan nan nan nan
39.3709 -20.2889 0.520862 12
nan nan nan nan
39.3803 -20.2708 0.675145 39
39.2823 -20.2696 0.755757 41
39.3083 -20.2454 0.831972 40
39.3075 -20.2075 0.908968 41
39.3156 -20.2175 0.985927 40
39.3225 -20.1749 1.06259 41
39.254 -20.3113 1.14253 42
39.3475 -20.1657 1.21614 41
39.2784 -20.2922 1.29603 42
39.286 -20.2584 1.38037 40
39.2941 -20.2338 1.44934 42
39.3137 -20.1977 1.52567 42
39.3163 -20.205 1.60281 41
39.3232 -20.171 1.67936 42
39.2671 -20.3137 1.75921 42
39.3632 -20.1608 1.83291 40
39.2895 -20.2936 1.91289 42
39.3684 -20.1405 1.98681 40
39.3211 -20.2435 2.06606 41
39.3388 -20.1977 2.14227 42
39.3325 -20.209 2.21964 39
39.3642 -20.1791 2.29611 41
39.2982 -20.3169 2.37615 42
39.3845 -20.1588 2.45001 39
39.3232 -20.2981 2.53013 41
39.4012 -20.1443 2.6041 39
39.3661 -20.2075 2.75981 40
39.3771 -20.1901 2.91389 41
39.4035 -20.1642 3.06796 40
39.3871 -20.1329 3.22129 40
39.3702 -20.3225 3.76813 40
39.537 -20.2765 4.54788 20
39.5558 -20.2608 5.75565 12
39.4245 -20.1481 6.91018 39
42.4019 -21.5503 9.33333 11
39.4883 -20.2524 10.8411 32
41.6701 -21.0876 14.3039 26
3.26473 -1.73174 0.279132 4
4.92657 -2.58525 0.0122675 16
6.21199 -3.26984 -0.0344498 12
7.48161 -3.89939 -0.0584521 12
8.76405 -4.58761 -0.0856385 17
9.9759 -5.22751 -0.0906179 12
11.3918 -5.95488 -0.133826 10
12.7599 -6.661 -0.161901 12
13.854 -7.24219 -0.153933 10
15.6159 -8.11722 -0.270628 23
15.6722 -8.19552 -0.187044 41
15.6563 -8.15735 -0.0743947 33
15.6569 -8.15894 0.0221121 40
15.6567 -8.13081 0.085338 44
15.6637 -8.12034 0.147107 36
15.6414 -8.16673 0.210058 36
15.6188 -8.13736 0.275167 43
15.6973 -8.15015 0.329469 29
15.8011 -8.18977 0.384424 32
15.6937 -8.19227 0.453048 29
15.9178 -8.29134 0.494306 3
17.6862 -9.15759 0.397488 4
17.7497 -9.19838 0.461647 4
17.7127 -9.21638 0.534147 4
17.7245 -9.22647 0.603105 4
17.7362 -9.18153 0.672903 3
nan nan nan nan
nan nan nan nan
nan nan nan nan
18.3092 -9.55121 0.881663 4
nan nan nan nan
21.7138 -11.3136 0.758552 8
nan nan nan nan
nan nan nan nan
nan nan nan nan
nan nan nan nan
nan nan nan nan
nan nan nan nan
22.6424 -11.7119 1.01755 10
nan nan nan nan
nan nan nan nan
23.1613 -12.0348 1.13155 3
39.2368 -20.3907 0.603328 42
39.3759 -20.4427 0.675784 40
39.2823 -20.4435 0.756383 39
39.3173 -20.424 0.832473 38
39.3167 -20.386 0.909623 39
39.3159 -20.3915 0.986969 39
39.3451 -20.3603 1.06324 39
39.284 -20.4922 1.14313 39
39.3613 -20.3465 1.21733 39
39.2961 -20.4753 1.29731 39
39.3083 -20.4438 1.38177 41
39.3076 -20.4147 1.45103 38
39.3362 -20.3831 1.52742 40
39.3211 -20.3812 1.60492 41
39.3547 -20.3609 1.68141 40
39.2926 -20.4924 1.76137 42
39.377 -20.3416 1.83543 40
39.2939 -20.4699 1.9156 42
39.3823 -20.3213 1.98966 40
39.3301 -20.4221 2.06907 39
39.3568 -20.3809 2.14547 42
39.3506 -20.3922 2.22302 38
39.3779 -20.36 2.29962 40
39.3015 -20.484 2.37957 37
39.3983 -20.3396 2.45385 40
39.3275 -20.4744 2.53403 38
39.4061 -20.3206 2.60814 39
39.3708 -20.3838 2.76415 40
39.3819 -20.3664 2.91853 39
39.4083 -20.3406 3.07289 41
39.3965 -20.3114 3.22665 40
39.3654 -20.4943 3.77401 36
39.5635 -20.4647 4.55707 20
39.56 -20.4375 5.7657 10
39.4288 -20.3241 6.92243 36
39.6656 -20.3341 8.8751 14
39.5258 -20.446 10.8684 33
nan nan nan nan
3.25477 -1.74106 0.281503 4
4.92177 -2.60471 0.0109367 13
6.20913 -3.2961 -0.0367913 10
7.47666 -3.93009 -0.0602846 12
8.74729 -4.61979 -0.0849612 11
9.96205 -5.26468 -0.0907998 14
11.3797 -5.99929 -0.134631 14
12.7411 -6.70789 -0.161708 10
13.8813 -7.31831 -0.161129 9
15.614 -8.18558 -0.27333 23
15.6875 -8.27341 -0.192044 42
15.666 -8.23555 -0.0784526 31
15.6636 -8.23211 0.018797 49
15.6635 -8.20393 0.0821596 42
15.6838 -8.20039 0.142496 49
15.6481 -8.23988 0.207159 43
15.6653 -8.23124 0.268006 40
15.6909 -8.2165 0.328264 31
15.724 -8.21955 0.39057 33
15.6827 -8.25634 0.452456 28
15.9329 -8.37008 0.491284 4
17.7868 -9.28855 0.386723 4
17.8589 -9.33426 0.450641 4
17.8969 -9.39172 0.517461 4
nan nan nan nan
17.8501 -9.31964 0.663234 3
18.2415 -9.52823 0.705766 1
18.2503 -9.57507 0.77671 1
18.2771 -9.59744 0.847002 8
nan nan nan nan
21.6343 -11.2886 0.720354 25
21.6522 -11.3777 0.761417 8
21.8507 -11.4119 0.793582 3
22.0261 -11.5552 0.826999 1
nan nan nan nan
22.4426 -11.7593 0.893336 3
nan nan nan nan
nan nan nan nan
22.5704 -11.7747 1.02056 3
22.5575 -11.8461 1.06549 8
nan nan nan nan
23.0773 -12.0987 1.13483 3
39.2762 -20.5856 0.60226 31
34.1196 -17.8655 0.853466 38
39.2462 -20.5991 0.758145 41
39.3211 -20.6006 0.833119 40
39.3251 -20.5649 0.910291 40
39.3287 -20.5726 0.98768 40
39.3581 -20.5414 1.06412 41
39.3024 -20.6941 1.14417 35
39.3743 -20.5277 1.21854 38
39.2731 -20.638 1.29933 25
39.2943 -20.6111 1.38375 36
30.4405 -15.9445 1.57703 28
30.4338 -15.9047 1.63662 34
39.3383 -20.5646 1.60692 39
39.341 -20.5282 1.68382 40
39.2808 -20.6872 1.76427 38
39.3856 -20.5205 1.83798 37
39.3063 -20.6511 1.91831 38
39.391 -20.5002 1.99252 37
39.3427 -20.6033 2.07211 37
39.3608 -20.5574 2.14864 36
39.3545 -20.5688 2.22633 38
39.3864 -20.5389 2.30312 36
39.3075 -20.6881 2.38375 33
39.4024 -20.5163 2.45761 36
39.3399 -20.6557 2.53806 35
39.4148 -20.4995 2.61226 37
39.388 -20.5673 2.76876 41
39.3991 -20.55 2.92349 37
39.4257 -20.5241 3.0782 40
39.414 -20.4948 3.23231 39
39.3909 -20.6825 3.7813 34
39.5492 -20.6325 4.5637 12
39.5456 -20.6052 5.77408 8
39.45 -20.5095 6.93691 39
41.7625 -21.5932 9.25484 10
39.5189 -20.6175 10.886 41
41.6539 -21.4455 14.3495 26
3.24478 -1.75033 0.283874 5
4.91276 -2.62196 0.0113001 16
6.18923 -3.3133 -0.0335336 4
7.463 -3.95625 -0.0597336 11
8.73042 -4.65191 -0.0842836 11
9.93504 -5.29488 -0.088233 11
11.3545 -6.03674 -0.132971 11
12.7177 -6.7524 -0.160769 12
13.9345 -7.40866 -0.172421 6
15.6336 -8.26562 -0.279233 23
15.6981 -8.34918 -0.196421 43
15.6753 -8.31392 -0.0825033 29
15.6788 -8.31008 0.0143722 47
15.6788 -8.28185 0.077906 42
15.6904 -8.27371 0.139463 44
15.6545 -8.31318 0.204267 39
15.6673 -8.30224 0.265741 39
15.6798 -8.28059 0.327533 32
15.7173 -8.28606 0.389461 36
15.6362 -8.30174 0.455357 34
15.9477 -8.44902 0.488268 6
17.8734 -9.41335 0.377184 4
21.5392 -11.3546 0.12838 4
17.9743 -9.51248 0.509609 4
17.9728 -9.51578 0.580909 3
17.9455 -9.44935 0.654915 3
18.2258 -9.60119 0.705849 3
18.2124 -9.63642 0.778351 9
nan nan nan nan
21.6072 -11.4644 0.677709 21
21.586 -11.3595 0.72247 25
21.63 -11.4626 0.761998 8
21.7976 -11.4812 0.795924 3
21.9043 -11.5938 0.832951 3
22.1607 -11.7224 0.863076 1
22.4368 -11.8563 0.893239 3
nan nan nan nan
nan nan nan nan
22.5027 -11.8395 1.02337 4
22.5072 -11.9201 1.06752 8
22.8149 -12.0147 1.09977 5
22.9401 -12.1342 1.14011 4
33.9198 -17.9297 0.793676 36
33.677 -17.7838 0.868786 37
34.0014 -17.998 0.925118 36
34.0343 -17.9824 0.991142 35
34.0627 -17.9643 1.05736 31
34.1017 -17.9899 1.12358 36
34.2303 -18.017 1.18751 20
33.9814 -18.0523 1.26169 32
30.5189 -16.0473 1.39617 20
34.6509 -18.3638 1.38359 13
30.4454 -16.1055 1.5246 23
30.4112 -16.0647 1.5789 34
30.4622 -16.0551 1.63785 35
30.5449 -16.1031 1.69712 11
39.3753 -20.7213 1.68586 40
30.6033 -16.2616 1.819 17
39.3978 -20.702 1.84053 31
nan nan nan nan
nan nan nan nan
30.574 -16.1473 2.05896 3
39.3773 -20.7413 2.15187 37
39.3709 -20.7526 2.22974 34
39.3985 -20.7204 2.30666 36
30.7305 -16.3189 2.3035 29
30.7915 -16.1702 2.36103 14
39.3736 -20.849 2.54242 40
39.4271 -20.6811 2.61647 39
39.3955 -20.7465 2.77322 42
39.4112 -20.7315 2.92836 40
39.4423 -20.708 3.08352 40
39.4351 -20.681 3.23812 39
39.4022 -20.8642 3.78801 40
39.5431 -20.8052 4.57091 10
41.3609 -21.7348 5.95762 10
39.4835 -20.7022 6.95306 36
41.4367 -21.6083 9.2144 10
39.5331 -20.8006 10.9085 34
41.5781 -21.5902 14.3526 29
3.23079 -1.75739 0.288374 5
4.89954 -2.63694 0.0133566 11
nan nan nan nan
7.45354 -3.98465 -0.0603728 11
8.70993 -4.68012 -0.0826023 10
9.91661 -5.32961 -0.0874979 14
11.3335 -6.07642 -0.132131 14
12.6942 -6.79684 -0.159829 12
13.9611 -7.48543 -0.179597 6
15.6267 -8.3319 -0.281284 25
15.7083 -8.42512 -0.200793 43
15.6813 -8.3874 -0.0860207 42
15.698 -8.39059 0.00939715 42
15.6982 -8.36231 0.0731192 42
15.6966 -8.34719 0.136436 41
15.6649 -8.38896 0.200875 41
15.6734 -8.3757 0.262993 39
15.6948 -8.35873 0.323982 41
15.7279 -8.36198 0.386546 38
15.6644 -8.38689 0.450845 31
15.949 -8.52112 0.486516 8
17.9945 -9.55758 0.364452 4
nan nan nan nan
nan nan nan nan
18.1111 -9.67012 0.568625 3
18.0799 -9.60091 0.64363 3
18.1747 -9.65543 0.70845 3
18.0906 -9.653 0.785631 11
21.5654 -11.5168 0.636866 8
21.5451 -11.528 0.680658 21
21.5507 -11.4371 0.723799 25
21.5724 -11.5287 0.764608 23
21.7927 -11.576 0.795574 3
21.802 -11.6373 0.837869 3
nan nan nan nan
22.0515 -11.7514 0.911927 3
nan nan nan nan
22.2542 -11.8999 0.994267 3
nan nan nan nan
22.4832 -12.008 1.06845 8
22.7376 -12.0755 1.10285 5
22.8756 -12.2025 1.14263 4
33.7027 -17.9658 0.801685 32
33.6148 -17.9013 0.871271 37
33.6033 -17.9377 0.938253 35
33.6582 -17.9342 1.00296 39
33.9027 -18.0315 1.06257 36
33.9417 -18.0572 1.1286 35
34.026 -18.0613 1.1934 36
33.8156 -18.1083 1.26639 39
30.4406 -16.1421 1.39886 30
30.4286 -16.2627 1.46033 35
30.3934 -16.214 1.52678 25
30.3726 -16.1801 1.5809 33
30.3707 -16.1426 1.64052 36
30.3075 -16.1133 1.70118 29
39.3602 -20.8891 1.6883 28
30.5477 -16.3553 1.82106 12
nan nan nan nan
30.5043 -16.2998 1.94149 34
30.4573 -16.1221 1.99929 38
30.4778 -16.2328 2.06114 3
30.3676 -16.1308 2.12015 39
nan nan nan nan
nan nan nan nan
30.6879 -16.4201 2.30563 34
39.4305 -20.882 2.46543 40
39.3623 -21.0192 2.54618 40
39.4386 -20.8629 2.62069 39
39.4111 -20.9308 2.77786 40
39.4225 -20.9134 2.93325 38
39.4493 -20.8876 3.08862 40
39.4378 -20.8581 3.24339 38
39.3996 -21.0392 3.79412 35
39.5583 -20.9898 4.57958 9
41.0865 -21.7739 5.94166 10
39.4767 -20.8745 6.96426 35
41.1333 -21.6329 9.17775 11
39.555 -20.9886 10.9329 39
41.2492 -21.6023 14.2803 20
3.22076 -1.76655 0.290744 5
4.895 -2.6555 0.0120094 5
2.34717 -1.27567 1.23467 43
7.43969 -4.01073 -0.0598209 11
8.69446 -4.70906 -0.0819886 14
9.89806 -5.36428 -0.0867624 11
11.3156 -6.12035 -0.13207 11
12.6705 -6.84119 -0.158889 10
13.9873 -7.56247 -0.186764 4
15.6297 -8.40019 -0.284669 17
15.7139 -8.49888 -0.204543 42
15.6885 -8.45827 -0.0895905 43
15.708 -8.46663 0.00554454 41
15.7099 -8.43556 0.0693622 42
15.7026 -8.4208 0.133415 42
15.675 -8.46493 0.19749 40
15.6793 -8.44931 0.260251 39
15.6934 -8.42492 0.322261 41
15.7207 -8.42866 0.385447 37
15.657 -8.4534 0.449828 35
15.9894 -8.61461 0.481004 9
16.4954 -8.83143 0.499684 3
16.6138 -8.90595 0.554715 12
18.1579 -9.77251 0.491396 4
18.2047 -9.8019 0.559854 3
18.1712 -9.72679 0.635618 3
18.1805 -9.74007 0.706967 3
21.591 -11.6172 0.548626 10
21.5164 -11.5873 0.63902 8
21.5224 -11.6127 0.681173 39
21.5083 -11.5062 0.725573 40
21.5364 -11.6063 0.765953 20
21.7434 -11.6473 0.797673 3
21.9393 -11.8042 0.829984 3
21.8233 -11.7397 0.879499 3
21.9556 -11.8038 0.916256 1
nan nan nan nan
22.2477 -11.9965 0.994318 3
nan nan nan nan
22.4324 -12.0817 1.07048 10
22.6733 -12.1431 1.1054 5
22.8262 -12.2736 1.14457 4
33.5254 -18.0218 0.80826 29
33.483 -17.9889 0.876105 37
33.523 -18.0455 0.941298 37
33.5558 -18.0303 1.00663 38
33.608 -18.0104 1.07142 36
33.6275 -18.0409 1.13757 39
33.8173 -18.1021 1.19937 39
33.6982 -18.1895 1.27001 37
33.8626 -18.108 1.33217 32
30.3645 -16.3717 1.46277 23
30.2398 -16.2679 1.53054 34
30.3072 -16.2813 1.58326 35
30.289 -16.2214 1.6429 34
30.1674 -16.1741 1.70425 34
nan nan nan nan
30.5593 -16.4921 1.82282 36
30.5516 -16.3275 1.88102 37
30.4576 -16.4185 1.94383 36
30.4008 -16.2283 2.00154 32
30.3637 -16.3083 2.06328 38
30.3211 -16.2284 2.12218 40
30.3238 -16.2546 2.18264 42
30.5061 -16.3156 2.24336 36
30.642 -16.5264 2.30788 31
39.4676 -21.0783 2.46964 29
39.3906 -21.2202 2.55071 29
31.2711 -16.6824 2.49582 23
31.3143 -16.7566 2.62158 17
39.4506 -21.1051 2.93857 42
39.4731 -21.0769 3.09422 35
39.444 -21.0379 3.24881 39
39.4138 -21.2239 3.80106 41
39.5815 -21.1794 4.58883 10
40.7771 -21.7925 5.9223 10
39.4866 -21.0564 6.97768 41
40.8171 -21.6487 9.13877 11
39.5719 -21.1747 10.9564 33
40.9164 -21.6102 14.2068 14
3.21466 -1.77786 0.290984 5
nan nan nan nan
2.32171 -1.27233 1.24184 39
7.42149 -4.03443 -0.0580788 9
8.6832 -4.74028 -0.0824094 6
9.8837 -5.40123 -0.0869412 14
11.2953 -6.15792 -0.131271 13
12.651 -6.88783 -0.158691 13
14.0261 -7.6469 -0.195974 4
15.6222 -8.4666 -0.286711 14
15.7147 -8.5704 -0.207673 43
15.6866 -8.52455 -0.0919869 42
15.7091 -8.53809 0.00281227 42
15.7067 -8.50462 0.0672889 43
15.7038 -8.4922 0.130922 42
15.6761 -8.53631 0.195121 42
15.6804 -8.52068 0.258002 43
15.699 -8.49867 0.319663 42
15.7263 -8.50249 0.382996 42
15.68 -8.53663 0.445768 39
15.9549 -8.66805 0.482609 12
16.4514 -8.8819 0.502109 3
18.2139 -9.84616 0.413353 3
18.2684 -9.91436 0.480672 4
18.3326 -9.95349 0.548316 3
18.326 -9.89213 0.622725 3
nan nan nan nan
21.5504 -11.6925 0.550228 10
21.4802 -11.6648 0.640339 24
21.4774 -11.6854 0.683041 38
21.4637 -11.5789 0.727428 40
21.4827 -11.6743 0.768309 20
21.6983 -11.7208 0.799528 3
21.9616 -11.9103 0.828239 3
21.7208 -11.7825 0.884287 3
21.9164 -11.8765 0.917803 1
22.0227 -11.9569 0.956196 5
22.1882 -12.0645 0.996767 3
22.3094 -12.0327 1.03134 5
22.3945 -12.1623 1.07196 9
22.6221 -12.2174 1.10743 6
22.7942 -12.354 1.14585 5
33.3745 -18.0912 0.81388 25
33.4057 -18.0904 0.879056 30
33.4027 -18.1314 0.945595 27
33.4444 -18.1212 1.01056 37
33.4671 -18.0931 1.07611 37
33.5116 -18.1296 1.14142 40
33.688 -18.1845 1.20344 41
30.4583 -16.5717 1.34148 20
30.4945 -16.4443 1.40005 36
30.3057 -16.47 1.46499 37
30.2356 -16.402 1.53196 30
30.2546 -16.3894 1.58545 30
nan nan nan nan
nan nan nan nan
nan nan nan nan
30.5879 -16.6388 1.82449 36
30.534 -16.4554 1.88313 40
30.403 -16.5194 1.94598 38
30.344 -16.3343 2.00379 40
30.2846 -16.4022 2.06549 1
30.2527 -16.3347 2.12451 35
30.2229 -16.3366 2.18462 25
30.1717 -16.2724 2.2434 36
30.3542 -16.5014 2.3077 31
30.8582 -16.6196 2.37068 36
30.9235 -16.7918 2.43577 10
31.085 -16.7227 2.4961 23
31.0503 -16.7619 2.61999 17
39.469 -21.2925 2.94369 42
39.4917 -21.2642 3.09971 41
39.476 -21.2322 3.25508 42
39.4222 -21.3973 3.80746 36
39.5555 -21.3434 4.59493 33
39.5998 -21.3413 5.81914 31
39.5133 -21.248 6.99333 36
39.6472 -21.2058 8.94999 39
39.5744 -21.345 10.9758 33
39.6966 -21.1433 13.8678 38
3.20063 -1.78473 0.295482 5
2.29778 -1.2668 1.07199 37
2.32989 -1.28744 1.23782 54
7.42024 -4.0674 -0.0610948 5
8.65896 -4.76442 -0.0797255 3
9.8649 -5.43578 -0.0862043 12
11.2739 -6.1974 -0.13043 12
12.6443 -6.94154 -0.160723 11
13.9951 -7.69351 -0.194246 8
15.6521 -8.5572 -0.294449 23
15.7109 -8.63963 -0.210183 43
15.6932 -8.59567 -0.0955458 30
15.6967 -8.6025 0.00175524 41
15.693 -8.57174 0.0663576 42
15.7047 -8.5637 0.128435 38
15.6768 -8.6078 0.192757 42
15.6812 -8.59217 0.255759 42
15.7028 -8.57531 0.317129 38
15.7184 -8.56932 0.381906 39
15.6938 -8.61533 0.442586 38
15.9334 -8.72853 0.482961 23
16.6989 -9.09478 0.477764 9
17.0328 -9.28438 0.515049 8
18.3388 -10.0356 0.473261 4
18.4379 -10.0941 0.538543 3
18.4606 -10.0523 0.611253 3
21.4379 -11.6793 0.471823 3
21.5139 -11.7701 0.551536 60
21.4438 -11.7421 0.641659 42
21.4366 -11.7603 0.68464 42
21.4212 -11.6575 0.729101 49
21.4463 -11.7517 0.769655 17
21.6793 -11.8084 0.799922 3
21.681 -11.8514 0.842706 3
21.6314 -11.8319 0.88839 3
21.9011 -11.9674 0.918129 1
21.9721 -12.0289 0.958252 5
22.1417 -12.1395 0.998618 3
22.2477 -12.1048 1.03384 3
22.3607 -12.2453 1.07326 10
22.5135 -12.2605 1.11172 13
22.7795 -12.4439 1.14647 4
33.298 -18.2004 0.816831 20
33.3292 -18.1997 0.881983 36
33.3042 -18.2287 0.94919 33
33.3327 -18.2115 1.01447 35
33.3217 -18.1726 1.08091 38
33.3911 -18.2154 1.14538 25
30.4853 -16.5929 1.28039 20
33.4542 -18.3453 1.27743 14
30.4853 -16.577 1.40136 17
nan nan nan nan
30.1607 -16.4978 1.53449 38
nan nan nan nan
nan nan nan nan
30.5323 -16.6452 1.70404 17
30.778 -16.7488 1.76237 23
30.8132 -16.8939 1.82503 25
30.7884 -16.7313 1.88419 29
30.3495 -16.6279 1.94824 37
30.2736 -16.433 2.00604 38
30.1174 -16.4479 2.06751 1
30.175 -16.4359 2.12679 36
30.1393 -16.4276 2.18671 34
30.1543 -16.3991 2.24596 34
30.0669 -16.4746 2.30749 42
30.1321 -16.3646 2.36493 37
nan nan nan nan
30.7671 -16.6905 2.49426 36
30.9052 -16.8301 2.62074 28
39.4603 -21.4659 2.9482 42
39.4918 -21.4424 3.10472 43
39.4674 -21.4056 3.26011 42
nan nan nan nan
39.4675 -21.474 4.59701 40
29.9078 -16.2528 4.89198 36
39.5042 -21.4211 7.00456 36
39.59 -21.3531 8.95599 40
39.6074 -21.5504 11.0044 33
39.7114 -21.3292 13.8975 40
3.19447 -1.79596 0.295722 5
2.28928 -1.27256 1.07385 39
2.30866 -1.28623 1.24358 54
nan nan nan nan
nan nan nan nan
9.84597 -5.47026 -0.0854669 12
11.248 -6.2344 -0.128768 13
12.6115 -6.98093 -0.158293 13
13.9683 -7.7424 -0.1932 9
15.6439 -8.62384 -0.296479 23
15.7155 -8.71376 -0.213916 42
15.6937 -8.66727 -0.0984571 30
15.6971 -8.67414 -0.000967503 40
15.6935 -8.64332 0.0637543 43
15.7097 -8.63771 0.125431 42
15.6772 -8.67939 0.190398 42
15.686 -8.66617 0.253035 43
15.7034 -8.64694 0.315013 43
15.7322 -8.64819 0.378564 43
15.6899 -8.68458 0.44115 40
15.9073 -8.78656 0.483733 17
16.6191 -9.12668 0.483409 12
17.031 -9.36064 0.51364 10
nan nan nan nan
nan nan nan nan
16.4751 -9.04568 0.760022 4
21.5196 -11.8215 0.464655 28
21.4727 -11.8452 0.55314 219
21.4334 -11.8338 0.641312 41
21.4086 -11.8424 0.685432 40
21.3805 -11.7323 0.730696 50
21.4139 -11.8313 0.770752 17
21.6511 -11.8913 0.800806 3
21.6352 -11.9246 0.844557 3
21.5594 -11.8905 0.891583 3
nan nan nan nan
nan nan nan nan
22.1036 -12.2192 1.00007 3
22.1878 -12.1728 1.03626 3
22.3135 -12.3208 1.07511 10
22.4969 -12.3534 1.11235 6
22.7929 -12.5547 1.14603 3
33.2212 -18.3093 0.819782 30
33.2174 -18.2894 0.886087 30
33.2142 -18.3304 0.952505 28
33.234 -18.3084 1.018 36
33.2318 -18.2743 1.08412 38
33.2967 -18.315 1.14865 39
33.4289 -18.3471 1.21156 34
30.5038 -16.8735 1.34251 29
30.4886 -16.7169 1.40242 35
30.4438 -16.8214 1.46502 26
nan nan nan nan
30.4198 -16.7546 1.58611 29
nan nan nan nan
30.4959 -16.7637 1.7061 29
30.7063 -16.849 1.76476 31
30.6592 -16.9559 1.82797 14
30.7473 -16.8483 1.88642 33
30.3438 -16.7627 1.95041 38
30.2073 -16.5337 2.00829 34
30.0993 -16.5746 2.06984 1
30.1131 -16.5387 2.12902 33
30.0949 -16.5399 2.18903 33
30.0925 -16.5018 2.24817 31
30.0151 -16.5895 2.30994 36
30.031 -16.4456 2.36664 38
30.0483 -16.5892 2.42961 37
30.5069 -16.6873 2.4933 36
29.7858 -16.3555 2.60169 23
39.4946 -21.6635 2.95378 42
39.5175 -21.6352 3.11049 40
39.4889 -21.5959 3.26613 30
28.8059 -15.9033 3.33065 41
29.3311 -16.0916 3.93604 11
29.8463 -16.3545 4.89379 36
39.5292 -21.6135 7.02024 41
39.6277 -21.5523 8.97881 34
39.6304 -21.7424 11.0299 40
39.7296 -21.5178 13.9286 41
3.18827 -1.80717 0.295962 5
2.28898 -1.28288 1.07233 54
2.30419 -1.29431 1.24376 65
2.38295 -1.32491 1.34399 37
2.36975 -1.32855 1.43617 38
9.82788 -5.50296 -0.0847661 13
11.2263 -6.27371 -0.127926 11
12.5828 -7.02259 -0.156606 12
13.9024 -7.76944 -0.186014 9
15.6615 -8.70499 -0.302341 28
15.7197 -8.78803 -0.217643 41
15.7025 -8.74382 -0.102529 30
15.7016 -8.7483 -0.00424051 41
15.7025 -8.71985 0.0600789 41
15.7143 -8.71186 0.122434 42
15.6832 -8.75078 0.187483 41
15.6949 -8.74273 0.24983 43
15.7124 -8.72351 0.311963 36
15.7455 -8.72726 0.375228 43
15.6872 -8.75117 0.43966 38
15.8766 -8.84208 0.484923 20
16.5044 -9.13881 0.492245 29
16.5405 -9.16626 0.555057 6
16.4729 -9.16484 0.626297 10
16.4494 -9.15541 0.694137 11
16.474 -9.1201 0.758941 12
21.4957 -11.9062 0.465011 226
21.5142 -11.9662 0.549138 168
21.3833 -11.9038 0.643471 35
21.3454 -11.9049 0.688379 49
21.3395 -11.8069 0.732292 40
21.3769 -11.9085 0.772102 20
21.6139 -11.9692 0.80218 3
21.9777 -12.2135 0.825567 3
21.6663 -12.0482 0.885531 3
22.1491 -12.3044 0.904923 3
nan nan nan nan
nan nan nan nan
